# .PCD v0.7 - Point Cloud Data file format
VERSION 0.7
FIELDS x y z rgba
SIZE 4 4 4 4
TYPE F F F U
COUNT 1 1 1 1
WIDTH 1077
HEIGHT 1
VIEWPOINT 0 0 0 1 0 0 0
POINTS 1077
DATA ascii
0.0034866668 0.10908286 0.523 4278584065
0.0044828574 0.10908286 0.523 4278584065
0.0054685716 0.10887429 0.52200001 4278649345
0.0064628576 0.10887429 0.52200001 4278715137
0.007428572 0.10845715 0.52000004 4278846478
0.0084028579 0.10824858 0.51900005 4278846746
0.0093914289 0.10824858 0.51900005 4278780942
0.010360001 0.10804 0.51800001 4278912769
0.011324762 0.10783143 0.51700002 4279044097
0.012309524 0.10783143 0.51700002 4279240705
0.013294287 0.10783143 0.51700002 4279502081
0.01425143 0.10762286 0.51600003 4279831041
0.015234287 0.10762286 0.51600003 4280158723
0.016217144 0.10762286 0.51600003 4279896836
0.017200001 0.10762286 0.51600003 4279635460
0.018182859 0.10762286 0.51600003 4279503876
0.019165715 0.10762286 0.51600003 4279438085
0.020148573 0.10762286 0.51600003 4279700741
0.02113143 0.10762286 0.51600003 4279962633
0.022114288 0.10762286 0.51600003 4279962380
0.023097144 0.10762286 0.51600003 4279896583
0.024080001 0.10762286 0.51600003 4280028162
0.025014287 0.10741429 0.51500005 4280158979
0.02599524 0.10741429 0.51500005 4280552707
0.027028574 0.10762286 0.51600003 4281011716
0.02801143 0.10762286 0.51600003 4280881924
0.028994288 0.10762286 0.51600003 4280752647
0.029977145 0.10762286 0.51600003 4281147145
0.031020002 0.10783143 0.51700002 4281541126
0.032004762 0.10783143 0.51700002 4281934595
0.032989524 0.10783143 0.51700002 4282327298
0.033974286 0.10783143 0.51700002 4282065921
0.03502667 0.10804 0.51800001 4281739009
0.03608286 0.10824858 0.51900005 4281541633
0.037071429 0.10824858 0.51900005 4281276936
0.038060002 0.10824858 0.51900005 4281341199
0.039199051 0.10866572 0.52100003 4281338635
0.040268574 0.10887429 0.52200001 4281076230
0.041341908 0.10908286 0.523 4280814084
0.042338099 0.10908286 0.523 4280420353
0.043417145 0.10929143 0.52400005 4280026113
0.044415239 0.10929143 0.52400005 4279829249
0.045586668 0.10970858 0.52600002 4279632130
0.046677146 0.10991715 0.52700001 4279304707
0.047952384 0.11054286 0.53000003 4278976770
-0.0066361907 0.11281525 0.53600001 4278321411
-0.0056152386 0.11281525 0.53600001 4278386947
-0.0045771431 0.1123943 0.53400004 4278387202
-0.0035533335 0.11218382 0.53300005 4278452737
-0.0025333336 0.11197334 0.53200001 4278518529
-0.001517143 0.11176287 0.53100002 4278715138
-0.00050190481 0.11092096 0.52700001 4278846210
0.00050190481 0.11092096 0.52700001 4278780418
0.0015000001 0.11050001 0.52500004 4278649346
0.0024952383 0.11028953 0.52400005 4278583810
0.0034866668 0.11007906 0.523 4278452738
0.004474286 0.10986858 0.52200001 4278452737
0.0054580956 0.1096581 0.52100003 4278452737
0.0064504766 0.1096581 0.52100003 4278452481
0.007414286 0.10923715 0.51900005 4278452743
0.0084028579 0.10923715 0.51900005 4278649614
0.0093914289 0.10923715 0.51900005 4278781447
0.010360001 0.10902667 0.51800001 4278979073
0.011324762 0.1088162 0.51700002 4279110145
0.012309524 0.1088162 0.51700002 4279241473
0.013294287 0.1088162 0.51700002 4279372545
0.01425143 0.10860572 0.51600003 4279569665
0.015234287 0.10860572 0.51600003 4279700996
0.016217144 0.10860572 0.51600003 4279765767
0.017200001 0.10860572 0.51600003 4279831557
0.018182859 0.10860572 0.51600003 4279831043
0.019165715 0.10860572 0.51600003 4279765512
0.020148573 0.10860572 0.51600003 4280093709
0.02113143 0.10860572 0.51600003 4280421140
0.022114288 0.10860572 0.51600003 4280224284
0.023097144 0.10860572 0.51600003 4280027665
0.024080001 0.10860572 0.51600003 4280093703
0.025014287 0.10839525 0.51500005 4280093959
0.02599524 0.10839525 0.51500005 4280815111
0.027028574 0.10860572 0.51600003 4281536007
0.02801143 0.10860572 0.51600003 4281341191
0.028994288 0.10860572 0.51600003 4281145866
0.029977145 0.10860572 0.51600003 4281542669
0.030960003 0.10860572 0.51600003 4281871377
0.032004762 0.1088162 0.51700002 4282594326
0.032989524 0.1088162 0.51700002 4283313165
0.033974286 0.1088162 0.51700002 4282723332
0.03502667 0.10902667 0.51800001 4282066956
0.03608286 0.10923715 0.51900005 4281804564
0.037071429 0.10923715 0.51900005 4281474831
0.038060002 0.10923715 0.51900005 4281735433
0.039199051 0.1096581 0.52100003 4281930246
0.040268574 0.10986858 0.52200001 4281535492
0.041341908 0.11007906 0.523 4281077507
0.042338099 0.11007906 0.523 4281011714
0.04333429 0.11007906 0.523 4280945410
0.044415239 0.11028953 0.52400005 4280682242
0.045586668 0.11071049 0.52600002 4280355586
0.046677146 0.11092096 0.52700001 4279960322
0.047680955 0.11092096 0.52700001 4279567362
-0.0066361907 0.1138362 0.53600001 4278321412
-0.0056152386 0.1138362 0.53600001 4278321669
-0.0045771431 0.11341143 0.53400004 4278387459
-0.0035466668 0.11298668 0.53200001 4278453249
-0.0025333336 0.11298668 0.53200001 4278518785
-0.0015114286 0.11234953 0.52900004 4278649857
-0.00050190481 0.11192477 0.52700001 4278780930
0.00050000002 0.11150001 0.52500004 4278714882
0.0014971429 0.11128762 0.52400005 4278649091
0.0024904762 0.11107524 0.523 4278583811
0.0034866668 0.11107524 0.523 4278452738
0.004474286 0.11086287 0.52200001 4278452737
0.0054580956 0.11065048 0.52100003 4278387201
0.0064504766 0.11065048 0.52100003 4278387201
0.007414286 0.11022572 0.51900005 4278452481
0.0084028579 0.11022572 0.51900005 4278649601
0.0093733342 0.11001334 0.51800001 4278846721
0.010340001 0.10980096 0.51700002 4278913025
0.011324762 0.10980096 0.51700002 4278979073
0.012309524 0.10980096 0.51700002 4279176193
0.013268572 0.10958858 0.51600003 4279373569
0.01425143 0.10958858 0.51600003 4279504897
0.015234287 0.10958858 0.51600003 4279636998
0.016217144 0.10958858 0.51600003 4279766538
0.017200001 0.10958858 0.51600003 4279897094
0.018182859 0.10958858 0.51600003 4279831297
0.019165715 0.10958858 0.51600003 4279699211
0.020148573 0.10958858 0.51600003 4279831060
0.02113143 0.10958858 0.51600003 4279961888
0.022114288 0.10958858 0.51600003 4279830828
0.023097144 0.10958858 0.51600003 4279699740
0.024080001 0.10958858 0.51600003 4279699979
0.025062859 0.10958858 0.51600003 4279701003
0.026045715 0.10958858 0.51600003 4280027659
0.027028574 0.10958858 0.51600003 4280420107
0.02801143 0.10958858 0.51600003 4280290314
0.028994288 0.10958858 0.51600003 4280225549
0.029977145 0.10958858 0.51600003 4280621840
0.031020002 0.10980096 0.51700002 4281020956
0.032004762 0.10980096 0.51700002 4281739048
0.032989524 0.10980096 0.51700002 4282461463
0.033974286 0.10980096 0.51700002 4282198278
0.03502667 0.11001334 0.51800001 4281935639
0.03608286 0.11022572 0.51900005 4281606951
0.037071429 0.11022572 0.51900005 4281344021
0.038060002 0.11022572 0.51900005 4281408515
0.039123811 0.1104381 0.52000004 4281538050
0.040191431 0.11065048 0.52100003 4281406721
0.041262861 0.11086287 0.52200001 4281276674
0.042338099 0.11107524 0.523 4281275906
0.04333429 0.11107524 0.523 4281275138
0.044415239 0.11128762 0.52400005 4281210882
0.045500003 0.11150001 0.52500004 4281212674
0.046677146 0.11192477 0.52700001 4280750849
0.047680955 0.11192477 0.52700001 4280289538
0.048777144 0.11213715 0.528 4279567363
-0.0086780954 0.11485715 0.53600001 4278386946
-0.0076571433 0.11485715 0.53600001 4278321410
-0.0066361907 0.11485715 0.53600001 4278256131
-0.0056152386 0.11485715 0.53600001 4278321669
-0.0045685717 0.11421429 0.53300005 4278387460
-0.0035466668 0.11400001 0.53200001 4278453507
-0.0025238097 0.11357144 0.53000003 4278519042
-0.0015085716 0.11314286 0.528 4278650113
-0.00050190481 0.11292858 0.52700001 4278715137
0.00050000002 0.1125 0.52500004 4278714882
0.0014971429 0.11228572 0.52400005 4278649346
0.0024904762 0.11207144 0.523 4278584066
0.0034866668 0.11207144 0.523 4278452738
0.004474286 0.11185715 0.52200001 4278387201
0.0054580956 0.11164287 0.52100003 4278321665
0.0064380956 0.11142858 0.52000004 4278387713
0.007414286 0.1112143 0.51900005 4278387457
0.0083866669 0.11100001 0.51800001 4278649601
0.0093733342 0.11100001 0.51800001 4278846465
0.010340001 0.11078572 0.51700002 4278846977
0.011324762 0.11078572 0.51700002 4278847233
0.012285715 0.11057144 0.51600003 4279110145
0.013268572 0.11057144 0.51600003 4279372545
0.01425143 0.11057144 0.51600003 4279439105
0.015234287 0.11057144 0.51600003 4279504397
0.016217144 0.11057144 0.51600003 4279766042
0.017200001 0.11057144 0.51600003 4279962638
0.018182859 0.11057144 0.51600003 4279832067
0.019165715 0.11057144 0.51600003 4279634183
0.020148573 0.11057144 0.51600003 4279568908
0.02113143 0.11057144 0.51600003 4279437332
0.022114288 0.11057144 0.51600003 4279371549
0.023097144 0.11057144 0.51600003 4279305489
0.024080001 0.11057144 0.51600003 4279305222
0.025062859 0.11057144 0.51600003 4279305734
0.026045715 0.11057144 0.51600003 4279304966
0.027028574 0.11057144 0.51600003 4279239688
0.02801143 0.11057144 0.51600003 4279240202
0.028994288 0.11057144 0.51600003 4279240457
0.029977145 0.11057144 0.51600003 4279698441
0.030960003 0.11057144 0.51600003 4280160271
0.032004762 0.11078572 0.51700002 4280879382
0.032989524 0.11078572 0.51700002 4281539089
0.033974286 0.11078572 0.51700002 4281672204
0.03502667 0.11100001 0.51800001 4281802008
0.03608286 0.1112143 0.51900005 4281474083
0.037071429 0.1112143 0.51900005 4281145877
0.038060002 0.1112143 0.51900005 4281147142
0.039123811 0.11142858 0.52000004 4281145350
0.040191431 0.11164287 0.52100003 4281276934
0.041262861 0.11185715 0.52200001 4281407498
0.042257145 0.11185715 0.52200001 4281474574
0.04333429 0.11207144 0.523 4281540618
0.044330478 0.11207144 0.523 4281804038
0.045413338 0.11228572 0.52400005 4282000135
0.046500005 0.1125 0.52500004 4281475592
0.047771432 0.11314286 0.528 4280947980
0.048777144 0.11314286 0.528 4280156943
-0.0096990485 0.11587811 0.53600001 4278387201
-0.0086780954 0.11587811 0.53600001 4278387201
-0.0076571433 0.11587811 0.53600001 4278387201
-0.0066361907 0.11587811 0.53600001 4278321667
-0.0056047621 0.11566191 0.53500003 4278387204
-0.0045685717 0.11522953 0.53300005 4278452484
-0.0035400002 0.11479715 0.53100002 4278584324
-0.0025095239 0.11393239 0.52700001 4278715395
-0.0015057144 0.11393239 0.52700001 4278912001
-0.00050190481 0.11393239 0.52700001 4279108097
0.00050000002 0.11350001 0.52500004 4278845953
0.0014942858 0.11306763 0.523 4278584065
0.0024904762 0.11306763 0.523 4278518529
0.0034800002 0.11285143 0.52200001 4278452737
0.0044657146 0.11263525 0.52100003 4278518273
0.0054580956 0.11263525 0.52100003 4278518017
0.0064380956 0.11241905 0.52000004 4278649601
0.007414286 0.11220287 0.51900005 4278780673
0.0083866669 0.11198667 0.51800001 4278977281
0.0093552386 0.11177048 0.51700002 4279108353
0.010340001 0.11177048 0.51700002 4279108609
0.011324762 0.11177048 0.51700002 4279108353
0.012285715 0.11155429 0.51600003 4279371009
0.013268572 0.11155429 0.51600003 4279633153
0.01425143 0.11155429 0.51600003 4279568385
0.015234287 0.11155429 0.51600003 4279502613
0.016217144 0.11155429 0.51600003 4279830825
0.017200001 0.11155429 0.51600003 4280224279
0.018182859 0.11155429 0.51600003 4279961604
0.019165715 0.11155429 0.51600003 4279698436
0.020148573 0.11155429 0.51600003 4279698692
0.02113143 0.11155429 0.51600003 4279632905
0.022114288 0.11155429 0.51600003 4279567373
0.023097144 0.11155429 0.51600003 4279501063
0.024080001 0.11155429 0.51600003 4279239169
0.025062859 0.11155429 0.51600003 4279042561
0.026045715 0.11155429 0.51600003 4278911489
0.027028574 0.11155429 0.51600003 4278845701
0.02801143 0.11155429 0.51600003 4278846217
0.028994288 0.11155429 0.51600003 4278846213
0.029977145 0.11155429 0.51600003 4279042817
0.030960003 0.11155429 0.51600003 4279239171
0.031942859 0.11155429 0.51600003 4279568132
0.032925718 0.11155429 0.51600003 4279898379
0.033908572 0.11155429 0.51600003 4280094994
0.034959052 0.11177048 0.51700002 4280290841
0.036013335 0.11198667 0.51800001 4280487711
0.037000004 0.11198667 0.51800001 4280618260
0.038060002 0.11220287 0.51900005 4280685065
0.039048575 0.11220287 0.51900005 4280684810
0.040114287 0.11241905 0.52000004 4280815626
0.041183811 0.11263525 0.52100003 4280945938
0.042257145 0.11285143 0.52200001 4281144858
0.04333429 0.11306763 0.523 4281280530
0.044330478 0.11306763 0.523 4282066697
0.045326669 0.11306763 0.523 4282787340
0.046411432 0.11328382 0.52400005 4282066191
0.047500003 0.11350001 0.52500004 4281410581
0.048500001 0.11350001 0.52500004 4280487963
0.049500003 0.11350001 0.52500004 4279566862
-0.0086780954 0.11689906 0.53600001 4278386945
-0.0076571433 0.11689906 0.53600001 4278386945
-0.0066361907 0.11689906 0.53600001 4278387202
-0.0055838097 0.11624477 0.53300005 4278452739
-0.0045600003 0.11602668 0.53200001 4278452739
-0.0035400002 0.11580858 0.53100002 4278649859
-0.0025190478 0.11537239 0.52900004 4278846466
-0.0015085716 0.1151543 0.528 4279173890
-0.00050190481 0.1149362 0.52700001 4279501315
0.00049904763 0.11428192 0.52400005 4278976771
0.0014942858 0.11406381 0.523 4278452739
0.0024857144 0.11384572 0.52200001 4278452739
0.0034800002 0.11384572 0.52200001 4278452738
0.0044657146 0.11362763 0.52100003 4278583554
0.0054476196 0.11340953 0.52000004 4278714884
0.0064380956 0.11340953 0.52000004 4278977031
0.007414286 0.11319143 0.51900005 4279174148
0.0083866669 0.11297334 0.51800001 4279304705
0.0093552386 0.11275525 0.51700002 4279371011
0.010340001 0.11275525 0.51700002 4279370757
0.011302858 0.11253715 0.51600003 4279304978
0.012285715 0.11253715 0.51600003 4279566880
0.013268572 0.11253715 0.51600003 4279829523
0.01425143 0.11253715 0.51600003 4279632645
0.015234287 0.11253715 0.51600003 4279436559
0.016217144 0.11253715 0.51600003 4279960857
0.017200001 0.11253715 0.51600003 4280419598
0.018182859 0.11253715 0.51600003 4280091140
0.019165715 0.11253715 0.51600003 4279763460
0.020148573 0.11253715 0.51600003 4279828996
0.02113143 0.11253715 0.51600003 4279829262
0.02207143 0.11231905 0.51500005 4279763481
0.023052383 0.11231905 0.51500005 4279632397
0.024033334 0.11231905 0.51500005 4279238913
0.025014287 0.11231905 0.51500005 4278780417
0.02599524 0.11231905 0.51500005 4278583553
0.027028574 0.11253715 0.51600003 4278386947
0.02801143 0.11253715 0.51600003 4278452485
0.028994288 0.11253715 0.51600003 4278452739
0.029977145 0.11253715 0.51600003 4278386945
0.030960003 0.11253715 0.51600003 4278321410
0.031942859 0.11253715 0.51600003 4278321411
0.032925718 0.11253715 0.51600003 4278256903
0.033908572 0.11253715 0.51600003 4278518026
0.03489143 0.11253715 0.51600003 4278781197
0.035943814 0.11275525 0.51700002 4279436048
0.036928575 0.11275525 0.51700002 4280092686
0.03798667 0.11297334 0.51800001 4280158988
0.039123811 0.11340953 0.52000004 4280225293
0.040037144 0.11319143 0.51900005 4280354831
0.041183811 0.11362763 0.52100003 4280485912
0.042257145 0.11384572 0.52200001 4280746786
0.04333429 0.11406381 0.523 4281013524
0.044330478 0.11406381 0.523 4282328839
0.045326669 0.11406381 0.523 4283574041
0.046411432 0.11428192 0.52400005 4282721836
0.047409527 0.11428192 0.52400005 4281802526
0.048500001 0.11450001 0.52500004 4280817680
0.049500003 0.11450001 0.52500004 4279764744
0.050596192 0.1147181 0.52600002 4279107841
-0.0076428577 0.11770001 0.53500003 4278518017
-0.0066238102 0.11770001 0.53500003 4278714625
-0.0055733337 0.11704001 0.53200001 4278649345
-0.0045514288 0.11682001 0.53100002 4278583809
-0.0035333335 0.11660001 0.53000003 4278780673
-0.002514286 0.11616001 0.528 4278977282
-0.0015057144 0.11594 0.52700001 4279698435
-0.00050190481 0.11594 0.52700001 4280418820
0.00049809529 0.11506001 0.523 4279566853
0.0014942858 0.11506001 0.523 4278714885
0.0024809525 0.11462001 0.52100003 4278715141
0.0034733335 0.11462001 0.52100003 4278780932
0.0044571431 0.11440001 0.52000004 4278977282
0.0054476196 0.11440001 0.52000004 4279174151
0.0064257146 0.11418001 0.51900005 4279305996
0.007414286 0.11418001 0.51900005 4279503111
0.0083866669 0.11396001 0.51800001 4279437569
0.0093552386 0.11374 0.51700002 4279438085
0.01032 0.11352 0.51600003 4279502344
0.011302858 0.11352 0.51600003 4279632676
0.012285715 0.11352 0.51600003 4280026175
0.013268572 0.11352 0.51600003 4280419364
0.01422381 0.11330001 0.51500005 4279895305
0.015204763 0.11330001 0.51500005 4279370505
0.016185716 0.11330001 0.51500005 4279632648
0.017166669 0.11330001 0.51500005 4279894278
0.018147619 0.11330001 0.51500005 4279697668
0.019128572 0.11330001 0.51500005 4279501060
0.020109525 0.11330001 0.51500005 4279632387
0.021090478 0.11330001 0.51500005 4279697940
0.022028573 0.11308001 0.514 4279894820
0.02300762 0.11308001 0.514 4280091923
0.023986667 0.11308001 0.514 4279501569
0.024965717 0.11308001 0.514 4278977025
0.02599524 0.11330001 0.51500005 4279042305
0.026923811 0.11308001 0.514 4279173377
0.027957145 0.11330001 0.51500005 4278911233
0.028938098 0.11330001 0.51500005 4278714625
0.029977145 0.11352 0.51600003 4278518017
0.030960003 0.11352 0.51600003 4278321410
0.031880956 0.11330001 0.51500005 4278321410
0.032861907 0.11330001 0.51500005 4278255874
0.033842858 0.11330001 0.51500005 4278386946
0.03489143 0.11352 0.51600003 4278583554
0.035874289 0.11352 0.51600003 4278845953
0.036857147 0.11352 0.51600003 4279174152
0.03798667 0.11396001 0.51800001 4279699982
0.039048575 0.11418001 0.51900005 4280161553
0.040037144 0.11418001 0.51900005 4280423956
0.041025717 0.11418001 0.51900005 4280682271
0.04209524 0.11440001 0.52000004 4280881193
0.043251432 0.11484001 0.52200001 4281074455
0.044330478 0.11506001 0.523 4281603845
0.045326669 0.11506001 0.523 4282198311
0.04632286 0.11506001 0.523 4281606984
0.047409527 0.11528001 0.52400005 4281015078
0.048407622 0.11528001 0.52400005 4280225284
0.049594291 0.11572001 0.52600002 4279435779
0.050596192 0.11572001 0.52600002 4278911489
-0.0055733337 0.11805334 0.53200001 4278845697
-0.0045428574 0.11760953 0.53000003 4278649345
-0.0035266669 0.11738763 0.52900004 4278911489
-0.0025095239 0.11694381 0.52700001 4279108617
-0.0015057144 0.11694381 0.52700001 4280223762
-0.00050095242 0.11672191 0.52600002 4281271306
0.00049809529 0.1160562 0.523 4280156419
0.0014914287 0.1158343 0.52200001 4278977283
0.0024809525 0.11561239 0.52100003 4279043075
0.0034666669 0.11539049 0.52000004 4279043586
0.0044571431 0.11539049 0.52000004 4279305218
0.0054371431 0.11516858 0.51900005 4279568644
0.0064257146 0.11516858 0.51900005 4279700487
0.007414286 0.11516858 0.51900005 4279831812
0.0083704768 0.11472477 0.51700002 4279635713
0.0093552386 0.11472477 0.51700002 4279437827
0.01032 0.11450286 0.51600003 4279698693
0.011302858 0.11450286 0.51600003 4279961362
0.012285715 0.11450286 0.51600003 4280485408
0.013242858 0.11428096 0.51500005 4280944403
0.014196191 0.11405905 0.514 4280158469
0.015175239 0.11405905 0.514 4279305221
0.016154287 0.11405905 0.514 4279304709
0.017133335 0.11405905 0.514 4279304708
0.018112382 0.11405905 0.514 4279304451
0.019091429 0.11405905 0.514 4279239171
0.020109525 0.11428096 0.51500005 4279435523
0.021090478 0.11428096 0.51500005 4279566859
0.022028573 0.11405905 0.514 4280091411
0.02300762 0.11405905 0.514 4280550154
0.024033334 0.11428096 0.51500005 4279828993
0.024965717 0.11405905 0.514 4279108097
0.02599524 0.11428096 0.51500005 4279501057
0.026923811 0.11405905 0.514 4279894273
0.027902858 0.11405905 0.514 4279435521
0.028938098 0.11428096 0.51500005 4278911233
0.029919049 0.11428096 0.51500005 4278649089
0.030960003 0.11450286 0.51600003 4278321410
0.031942859 0.11450286 0.51600003 4278321410
0.032861907 0.11428096 0.51500005 4278255874
0.033908572 0.11450286 0.51600003 4278321410
0.03489143 0.11450286 0.51600003 4278321410
0.035874289 0.11450286 0.51600003 4278321409
0.036857147 0.11450286 0.51600003 4278256136
0.03798667 0.11494667 0.51800001 4279173646
0.039048575 0.11516858 0.51900005 4280096013
0.040037144 0.11516858 0.51900005 4280496651
0.041025717 0.11516858 0.51900005 4280887587
0.04201429 0.11516858 0.51900005 4281020988
0.043085717 0.11539049 0.52000004 4281081380
0.044330478 0.1160562 0.523 4280944396
0.045326669 0.1160562 0.523 4280751387
0.04632286 0.1160562 0.523 4280492073
0.047319051 0.1160562 0.523 4280160534
0.048407622 0.1162781 0.52400005 4279632899
0.049594291 0.11672191 0.52600002 4279108098
0.050596192 0.11672191 0.52600002 4278714881
0.051598098 0.11672191 0.52600002 4278321672
0.053100005 0.11783144 0.53100002 4278321679
-0.0055628577 0.11884286 0.53100002 4278583553
-0.0045171431 0.11794762 0.52700001 4278518017
-0.0035133336 0.11794762 0.52700001 4278780417
-0.0025095239 0.11794762 0.52700001 4279043089
-0.0015028572 0.11772382 0.52600002 4279764256
-0.00050000002 0.11750001 0.52500004 4280484881
0.00049809529 0.11705239 0.523 4279895041
0.0014914287 0.11682858 0.52200001 4279305473
0.0024809525 0.11660477 0.52100003 4279634177
0.0034666669 0.11638096 0.52000004 4279962881
0.0044571431 0.11638096 0.52000004 4279962625
0.0054371431 0.11615715 0.51900005 4280029186
0.0064257146 0.11615715 0.51900005 4280160258
0.0074000005 0.11593334 0.51800001 4280291586
0.0083704768 0.11570953 0.51700002 4279832065
0.009337143 0.11548572 0.51600003 4279437825
0.01032 0.11548572 0.51600003 4279699969
0.011302858 0.11548572 0.51600003 4279897601
0.012261906 0.11526191 0.51500005 4279962113
0.013217144 0.1150381 0.514 4280092417
0.014196191 0.1150381 0.514 4279436801
0.015175239 0.1150381 0.514 4278846209
0.016154287 0.1150381 0.514 4278911489
0.017133335 0.1150381 0.514 4279042561
0.018112382 0.1150381 0.514 4279042561
0.019091429 0.1150381 0.514 4279108354
0.020070478 0.1150381 0.514 4279304962
0.021049526 0.1150381 0.514 4279435778
0.022028573 0.1150381 0.514 4279632385
0.02300762 0.1150381 0.514 4279763201
0.024033334 0.11526191 0.51500005 4279304705
0.024965717 0.1150381 0.514 4278845953
0.025944764 0.1150381 0.514 4278976769
0.026923811 0.1150381 0.514 4279173377
0.027902858 0.1150381 0.514 4278911233
0.028881907 0.1150381 0.514 4278649089
0.029919049 0.11526191 0.51500005 4278452481
0.030900002 0.11526191 0.51500005 4278321410
0.031880956 0.11526191 0.51500005 4278321410
0.032861907 0.11526191 0.51500005 4278386946
0.033908572 0.11548572 0.51600003 4278386946
0.03489143 0.11548572 0.51600003 4278386946
0.035874289 0.11548572 0.51600003 4278518017
0.036857147 0.11548572 0.51600003 4278649096
0.037913337 0.11570953 0.51700002 4279437326
0.038973335 0.11593334 0.51800001 4280289800
0.040037144 0.11615715 0.51900005 4281018882
0.041025717 0.11615715 0.51900005 4281743912
0.04201429 0.11615715 0.51900005 4281548110
0.043085717 0.11638096 0.52000004 4281350705
0.044245716 0.11682858 0.52200001 4280620307
0.045326669 0.11705239 0.523 4279960335
0.04632286 0.11705239 0.523 4279700234
0.047319051 0.11705239 0.523 4279436550
0.048407622 0.1172762 0.52400005 4279108353
0.049594291 0.11772382 0.52600002 4278845697
0.050596192 0.11772382 0.52600002 4278583809
0.051598098 0.11772382 0.52600002 4278321678
0.053100005 0.11884286 0.53100002 4278321690
0.054111432 0.11884286 0.53100002 4278321678
0.05512286 0.11884286 0.53100002 4278255873
-0.0065495241 0.11940286 0.52900004 4278256129
-0.0055419053 0.11940286 0.52900004 4278321409
-0.0045171431 0.11895144 0.52700001 4278386945
-0.0035133336 0.11895144 0.52700001 4278714625
-0.0025095239 0.11895144 0.52700001 4278977033
-0.0015028572 0.11872572 0.52600002 4279304721
-0.00049809529 0.11804858 0.523 4279632905
0.0004971429 0.11782286 0.52200001 4279633410
0.0014885715 0.11759715 0.52100003 4279568393
0.0024761907 0.11737144 0.52000004 4280225297
0.0034666669 0.11737144 0.52000004 4280880650
0.0044485717 0.11714572 0.51900005 4280684292
0.0054371431 0.11714572 0.51900005 4280422421
0.0064257146 0.11714572 0.51900005 4280554022
0.0073857149 0.11669429 0.51700002 4280684821
0.0083542867 0.11646858 0.51600003 4280093956
0.009337143 0.11646858 0.51600003 4279438338
0.010300001 0.11624286 0.51500005 4279634433
0.011280953 0.11624286 0.51500005 4279831809
0.012238096 0.11601715 0.514 4279504385
0.013217144 0.11601715 0.514 4279175425
0.014168573 0.11579143 0.51300001 4278780929
0.015145715 0.11579143 0.51300001 4278387457
0.016122859 0.11579143 0.51300001 4278583809
0.017100001 0.11579143 0.51300001 4278715138
0.018077144 0.11579143 0.51300001 4278846211
0.019054286 0.11579143 0.51300001 4278978068
0.02003143 0.11579143 0.51300001 4279174950
0.021049526 0.11601715 0.514 4279305749
0.022028573 0.11601715 0.514 4279173893
0.02300762 0.11601715 0.514 4278977539
0.023986667 0.11601715 0.514 4278780674
0.024965717 0.11601715 0.514 4278584322
0.025894288 0.11579143 0.51300001 4278518018
0.02687143 0.11579143 0.51300001 4278387201
0.027848573 0.11579143 0.51300001 4278386945
0.028881907 0.11601715 0.514 4278321665
0.029860955 0.11601715 0.514 4278321409
0.030900002 0.11624286 0.51500005 4278255877
0.031880956 0.11624286 0.51500005 4278386952
0.032861907 0.11624286 0.51500005 4278452997
0.033842858 0.11624286 0.51500005 4278452482
0.034823813 0.11624286 0.51500005 4278452995
0.035874289 0.11646858 0.51600003 4278714629
0.036857147 0.11646858 0.51600003 4278978569
0.037840001 0.11646858 0.51600003 4279702542
0.03882286 0.11646858 0.51600003 4280425997
0.039882861 0.11669429 0.51700002 4281479435
0.04094667 0.11692001 0.51800001 4282530595
0.04201429 0.11714572 0.51900005 4282076219
0.043085717 0.11737144 0.52000004 4281544231
0.044160955 0.11759715 0.52100003 4280356372
0.045240004 0.11782286 0.52200001 4279108877
0.046234287 0.11782286 0.52200001 4278911494
0.047319051 0.11804858 0.523 4278649603
0.048500001 0.11850001 0.52500004 4278584065
0.049594291 0.11872572 0.52600002 4278518273
0.050596192 0.11872572 0.52600002 4278386945
0.051598098 0.11872572 0.52600002 4278255880
0.052700002 0.11895144 0.52700001 4278321422
0.054009527 0.11962858 0.53000003 4278321672
0.055019051 0.11962858 0.53000003 4278321409
-0.0065495241 0.12041049 0.52900004 4278321921
-0.0055314288 0.12018286 0.528 4278452737
-0.0045171431 0.11995525 0.52700001 4278583809
-0.0035200003 0.12018286 0.528 4278780417
-0.0025095239 0.11995525 0.52700001 4279042305
-0.0015028572 0.11972763 0.52600002 4279239169
-0.00049809529 0.11904477 0.523 4279501314
0.00049619051 0.11858953 0.52100003 4279436290
0.0014885715 0.11858953 0.52100003 4279437073
0.0024761907 0.11836191 0.52000004 4279830816
0.0034600003 0.11813429 0.51900005 4280225300
0.0044485717 0.11813429 0.51900005 4280225031
0.0054371431 0.11813429 0.51900005 4280160296
0.0064009526 0.11767905 0.51700002 4280357705
0.0073857149 0.11767905 0.51700002 4280620328
0.0083542867 0.11745144 0.51600003 4280094726
0.009337143 0.11745144 0.51600003 4279635716
0.010300001 0.11722381 0.51500005 4280028673
0.011280953 0.11722381 0.51500005 4280356353
0.012238096 0.1169962 0.514 4279897345
0.013217144 0.1169962 0.514 4279437569
0.014168573 0.11676858 0.51300001 4279109121
0.015145715 0.11676858 0.51300001 4278780673
0.016122859 0.11676858 0.51300001 4278911745
0.017100001 0.11676858 0.51300001 4279042819
0.018077144 0.11676858 0.51300001 4279043333
0.019054286 0.11676858 0.51300001 4279110183
0.02003143 0.11676858 0.51300001 4279503177
0.021049526 0.1169962 0.514 4279896617
0.021985715 0.11676858 0.51300001 4279568137
0.022962859 0.11676858 0.51300001 4279240454
0.023986667 0.1169962 0.514 4279044098
0.024965717 0.1169962 0.514 4278913282
0.025944764 0.1169962 0.514 4278781186
0.02687143 0.11676858 0.51300001 4278715138
0.027848573 0.11676858 0.51300001 4278780929
0.028881907 0.1169962 0.514 4278846209
0.029860955 0.1169962 0.514 4279108609
0.030840002 0.1169962 0.514 4279435784
0.031819049 0.1169962 0.514 4279305998
0.032798097 0.1169962 0.514 4279174920
0.033842858 0.11722381 0.51500005 4279109890
0.034823813 0.11722381 0.51500005 4279109637
0.035874289 0.11745144 0.51600003 4279502856
0.036857147 0.11745144 0.51600003 4279896587
0.037840001 0.11745144 0.51600003 4279899406
0.03882286 0.11745144 0.51600003 4279904017
0.039882861 0.11767905 0.51700002 4280296468
0.040867623 0.11767905 0.51700002 4280759838
0.041933335 0.11790667 0.51800001 4280363303
0.043002859 0.11813429 0.51900005 4279968286
0.044076193 0.11836191 0.52000004 4279373076
0.045153335 0.11858953 0.52100003 4278714635
0.046234287 0.11881715 0.52200001 4278583553
0.047319051 0.11904477 0.523 4278518017
0.048407622 0.11927239 0.52400005 4278911489
0.049594291 0.11972763 0.52600002 4279304961
0.050596192 0.11972763 0.52600002 4278780417
0.051696192 0.11995525 0.52700001 4278255874
0.052700002 0.11995525 0.52700001 4278321410
0.053907622 0.12041049 0.52900004 4278321666
0.054915242 0.12041049 0.52900004 4278321409
-0.0075571435 0.1214181 0.52900004 4278386945
-0.0065371431 0.12118858 0.528 4278387201
-0.0055314288 0.12118858 0.528 4278583809
-0.0045171431 0.12095906 0.52700001 4278714881
-0.0035133336 0.12095906 0.52700001 4278911489
-0.0025095239 0.12095906 0.52700001 4279107841
-0.0015000001 0.12050001 0.52500004 4279238913
-0.00049809529 0.12004096 0.523 4279304449
0.00049619051 0.11958192 0.52100003 4279304450
0.0014857143 0.11935239 0.52000004 4279239433
0.0024761907 0.11935239 0.52000004 4279435793
0.0034600003 0.11912286 0.51900005 4279567882
0.0044485717 0.11912286 0.51900005 4279764484
0.0054266672 0.11889334 0.51800001 4279897112
0.0064009526 0.11866382 0.51700002 4280227371
0.0073714289 0.1184343 0.51600003 4280487704
0.0083542867 0.1184343 0.51600003 4280159748
0.009337143 0.1184343 0.51600003 4279832075
0.010300001 0.11820477 0.51500005 4280357137
0.011280953 0.11820477 0.51500005 4280880394
0.012238096 0.11797524 0.514 4280291075
0.013217144 0.11797524 0.514 4279699970
0.014168573 0.11774572 0.51300001 4279437057
0.015145715 0.11774572 0.51300001 4279108865
0.016122859 0.11774572 0.51300001 4279239425
0.017100001 0.11774572 0.51300001 4279304962
0.018077144 0.11774572 0.51300001 4279239939
0.019054286 0.11774572 0.51300001 4279174934
0.02003143 0.11774572 0.51300001 4279830570
0.021008573 0.11774572 0.51300001 4280485911
0.021985715 0.11774572 0.51300001 4280027397
0.022962859 0.11774572 0.51300001 4279503107
0.023940001 0.11774572 0.51300001 4279372802
0.024917144 0.11774572 0.51300001 4279175426
0.025894288 0.11774572 0.51300001 4279109634
0.02687143 0.11774572 0.51300001 4278978310
0.027848573 0.11774572 0.51300001 4279175434
0.028825717 0.11774572 0.51300001 4279305993
0.029802859 0.11774572 0.51300001 4279962121
0.030840002 0.11797524 0.514 4280552987
0.031819049 0.11797524 0.514 4280226349
0.032798097 0.11797524 0.514 4279831833
0.033777144 0.11797524 0.514 4279833862
0.034823813 0.11820477 0.51500005 4279765765
0.035804763 0.11820477 0.51500005 4280290053
0.036857147 0.1184343 0.51600003 4280813830
0.037840001 0.1184343 0.51600003 4280094216
0.03882286 0.1184343 0.51600003 4279373322
0.039805718 0.1184343 0.51600003 4279173389
0.040867623 0.11866382 0.51700002 4278914580
0.041852385 0.11866382 0.51700002 4278649115
0.043002859 0.11912286 0.51900005 4278389011
0.044076193 0.11935239 0.52000004 4278386955
0.045240004 0.11981144 0.52200001 4278321414
0.04632286 0.12004096 0.523 4278321409
0.047319051 0.12004096 0.523 4278321409
0.048315242 0.12004096 0.523 4279173377
0.049500003 0.12050001 0.52500004 4280025601
0.050596192 0.12072953 0.52600002 4279173889
0.051696192 0.12095906 0.52700001 4278256129
0.052700002 0.12095906 0.52700001 4278321410
0.053907622 0.1214181 0.52900004 4278321409
0.054915242 0.1214181 0.52900004 4278321409
-0.0075428574 0.12219429 0.528 4278452481
-0.0065371431 0.12219429 0.528 4278518273
-0.0055209529 0.12196287 0.52700001 4278714881
-0.0045171431 0.12196287 0.52700001 4278911233
-0.0035133336 0.12196287 0.52700001 4279107841
-0.002504762 0.12173144 0.52600002 4279304449
-0.0015000001 0.12150001 0.52500004 4279435521
-0.0004971429 0.12080573 0.52200001 4279566593
0.00049523811 0.12034287 0.52000004 4279238913
0.0014857143 0.12034287 0.52000004 4278976769
0.0024714288 0.12011144 0.51900005 4279173377
0.0034600003 0.12011144 0.51900005 4279435521
0.0044400003 0.11988001 0.51800001 4279436033
0.0054266672 0.11988001 0.51800001 4279435783
0.006388572 0.11941715 0.51600003 4279699213
0.0073714289 0.11941715 0.51600003 4279895048
0.0083542867 0.11941715 0.51600003 4279830274
0.009337143 0.11941715 0.51600003 4279699986
0.010300001 0.11918572 0.51500005 4279896353
0.011280953 0.11918572 0.51500005 4280092435
0.012238096 0.11895429 0.514 4279830532
0.013217144 0.11895429 0.514 4279502595
0.014196191 0.11895429 0.514 4279437057
0.015145715 0.11872286 0.51300001 4279305985
0.016122859 0.11872286 0.51300001 4279632897
0.017100001 0.11872286 0.51300001 4279894529
0.018077144 0.11872286 0.51300001 4279501569
0.019054286 0.11872286 0.51300001 4279108614
0.02003143 0.11872286 0.51300001 4279502090
0.021008573 0.11872286 0.51300001 4279895302
0.021985715 0.11872286 0.51300001 4279567873
0.022962859 0.11872286 0.51300001 4279306241
0.023940001 0.11872286 0.51300001 4279109633
0.024917144 0.11872286 0.51300001 4278978562
0.025894288 0.11872286 0.51300001 4278912770
0.02687143 0.11872286 0.51300001 4278847242
0.027848573 0.11872286 0.51300001 4278978322
0.028825717 0.11872286 0.51300001 4279109393
0.029802859 0.11872286 0.51300001 4279372816
0.030780002 0.11872286 0.51300001 4279703854
0.031819049 0.11895429 0.514 4279438668
0.032798097 0.11895429 0.514 4279174187
0.033777144 0.11895429 0.514 4279174921
0.034756191 0.11895429 0.514 4279239429
0.035804763 0.11918572 0.51500005 4279436289
0.036857147 0.11941715 0.51600003 4279697921
0.037840001 0.11941715 0.51600003 4279305473
0.03882286 0.11941715 0.51600003 4278911748
0.039805718 0.11941715 0.51600003 4278780422
0.040788572 0.11941715 0.51600003 4278649098
0.041852385 0.11964858 0.51700002 4278518030
0.042920005 0.11988001 0.51800001 4278386952
0.043991432 0.12011144 0.51900005 4278321410
0.045153335 0.1205743 0.52100003 4278321410
0.046234287 0.12080573 0.52200001 4278321409
0.047319051 0.12103715 0.523 4278321409
0.048315242 0.12103715 0.523 4278780161
0.049500003 0.12150001 0.52500004 4279238913
0.050500002 0.12150001 0.52500004 4278911489
0.051696192 0.12196287 0.52700001 4278518529
0.052700002 0.12196287 0.52700001 4278518273
0.054009527 0.12265715 0.53000003 4278452481
0.055019051 0.12265715 0.53000003 4278386945
-0.009626667 0.12413334 0.53200001 4278386945
-0.0075857146 0.12390001 0.53100002 4278518017
-0.0065371431 0.12320001 0.528 4278649089
-0.0055209529 0.12296668 0.52700001 4278845698
-0.0045171431 0.12296668 0.52700001 4279042305
-0.0035133336 0.12296668 0.52700001 4279304449
-0.002504762 0.12273334 0.52600002 4279501057
-0.0015000001 0.12250001 0.52500004 4279697665
-0.00049809529 0.12203334 0.523 4279828737
0.00049619051 0.12156668 0.52100003 4279238913
0.0014857143 0.12133334 0.52000004 4278649089
0.0024714288 0.12110001 0.51900005 4278976769
0.0034600003 0.12110001 0.51900005 4279304449
0.0044314289 0.12063334 0.51700002 4279173377
0.0054161907 0.12063334 0.51700002 4278976773
0.006388572 0.12040001 0.51600003 4279173385
0.0073714289 0.12040001 0.51600003 4279304709
0.0083542867 0.12040001 0.51600003 4279435522
0.0093190484 0.12016667 0.51500005 4279567369
0.010300001 0.12016667 0.51500005 4279436049
0.011259048 0.11993334 0.514 4279305226
0.012238096 0.11993334 0.514 4279304963
0.013217144 0.11993334 0.514 4279305474
0.014168573 0.11970001 0.51300001 4279436801
0.015145715 0.11970001 0.51300001 4279502087
0.016122859 0.11970001 0.51300001 4280025868
0.017100001 0.11970001 0.51300001 4280484359
0.018077144 0.11970001 0.51300001 4279763458
0.019054286 0.11970001 0.51300001 4279042564
0.02003143 0.11970001 0.51300001 4279173639
0.021008573 0.11970001 0.51300001 4279304964
0.021985715 0.11970001 0.51300001 4279173890
0.022962859 0.11970001 0.51300001 4279043074
0.023940001 0.11970001 0.51300001 4278912002
0.024917144 0.11970001 0.51300001 4278781186
0.025894288 0.11970001 0.51300001 4278780931
0.02687143 0.11970001 0.51300001 4278715399
0.027848573 0.11970001 0.51300001 4278846220
0.028825717 0.11970001 0.51300001 4278912010
0.029802859 0.11970001 0.51300001 4278846729
0.030780002 0.11970001 0.51300001 4278782237
0.031819049 0.11993334 0.514 4278649649
0.032798097 0.11993334 0.514 4278452763
0.033777144 0.11993334 0.514 4278583558
0.034756191 0.11993334 0.514 4278649348
0.035804763 0.12016667 0.51500005 4278583555
0.036857147 0.12040001 0.51600003 4278518018
0.037840001 0.12040001 0.51600003 4278518017
0.03882286 0.12040001 0.51600003 4278452738
0.039805718 0.12040001 0.51600003 4278386948
0.040788572 0.12040001 0.51600003 4278321415
0.041852385 0.12063334 0.51700002 4278321419
0.042837147 0.12063334 0.51700002 4278321414
0.043821909 0.12063334 0.51700002 4278321410
0.04506667 0.12133334 0.52000004 4278321409
0.046234287 0.12180001 0.52200001 4278321409
0.047319051 0.12203334 0.523 4278255873
0.048315242 0.12203334 0.523 4278387201
0.049405716 0.12226667 0.52400005 4278452737
0.050596192 0.12273334 0.52600002 4278649345
0.052900005 0.12343334 0.52900004 4278714625
0.054009527 0.12366667 0.53000003 4278583553
-0.0096447626 0.12538192 0.53300005 4278386945
-0.008613334 0.12514667 0.53200001 4278321409
-0.0075857146 0.12491143 0.53100002 4278583553
-0.0065371431 0.12420572 0.528 4278845698
-0.0055209529 0.12397049 0.52700001 4279173378
-0.0045171431 0.12397049 0.52700001 4279501058
-0.0035133336 0.12397049 0.52700001 4279632129
-0.0025000002 0.1235 0.52500004 4279763201
-0.0014971429 0.12326477 0.52400005 4279959809
-0.0004971429 0.12279429 0.52200001 4280156417
0.00049619051 0.12255906 0.52100003 4279828737
0.0014857143 0.12232382 0.52000004 4279501057
0.0024714288 0.12208858 0.51900005 4279697665
0.0034533336 0.12185334 0.51800001 4279894273
0.0044314289 0.1216181 0.51700002 4279763201
0.0054161907 0.1216181 0.51700002 4279632131
0.006388572 0.12138286 0.51600003 4279697668
0.0073714289 0.12138286 0.51600003 4279828739
0.0083542867 0.12138286 0.51600003 4279632129
0.0093190484 0.12114763 0.51500005 4279435521
0.010300001 0.12114763 0.51500005 4279108097
0.011259048 0.12091239 0.514 4278845697
0.012238096 0.12091239 0.514 4278911489
0.013217144 0.12091239 0.514 4278977025
0.014168573 0.12067715 0.51300001 4279042817
0.015145715 0.12067715 0.51300001 4279173644
0.016122859 0.12067715 0.51300001 4279435799
0.017100001 0.12067715 0.51300001 4279697677
0.018077144 0.12067715 0.51300001 4279173378
0.019054286 0.12067715 0.51300001 4278714627
0.02003143 0.12067715 0.51300001 4278911236
0.021008573 0.12067715 0.51300001 4279107843
0.021985715 0.12067715 0.51300001 4278977026
0.022962859 0.12067715 0.51300001 4278911234
0.023940001 0.12067715 0.51300001 4278714882
0.024917144 0.12067715 0.51300001 4278583811
0.025894288 0.12067715 0.51300001 4278583811
0.02687143 0.12067715 0.51300001 4278583556
0.027848573 0.12067715 0.51300001 4278649349
0.028825717 0.12067715 0.51300001 4278714627
0.029802859 0.12067715 0.51300001 4278714881
0.030780002 0.12067715 0.51300001 4278714635
0.031757146 0.12067715 0.51300001 4278518293
0.032734286 0.12067715 0.51300001 4278386956
0.033777144 0.12091239 0.514 4278452483
0.034756191 0.12091239 0.514 4278518020
0.035735242 0.12091239 0.514 4278518020
0.036785718 0.12114763 0.51500005 4278518019
0.037766669 0.12114763 0.51500005 4278518017
0.03882286 0.12138286 0.51600003 4278518017
0.039805718 0.12138286 0.51600003 4278452481
0.040788572 0.12138286 0.51600003 4278321412
0.041852385 0.1216181 0.51700002 4278321415
0.042837147 0.1216181 0.51700002 4278386948
0.043821909 0.1216181 0.51700002 4278321409
0.044980004 0.12208858 0.51900005 4278321409
0.04632286 0.12302953 0.523 4278321409
0.047319051 0.12302953 0.523 4278321409
0.048315242 0.12302953 0.523 4278387201
0.049405716 0.12326477 0.52400005 4278452737
0.050692383 0.12397049 0.52700001 4278911745
0.054009527 0.1246762 0.53000003 4278649089
-0.011740953 0.12710857 0.53600001 4278387201
-0.0107 0.12687144 0.53500003 4278386945
-0.0096628582 0.1266343 0.53400004 4278386945
-0.008613334 0.12616001 0.53200001 4278321409
-0.0075857146 0.12592286 0.53100002 4278649089
-0.0065495241 0.12544858 0.52900004 4278976770
-0.0055314288 0.12521143 0.528 4279435524
-0.0045171431 0.1249743 0.52700001 4279894274
-0.0035133336 0.1249743 0.52700001 4279959809
-0.002504762 0.12473715 0.52600002 4279959809
-0.0014971429 0.12426286 0.52400005 4280221953
-0.0004971429 0.12378858 0.52200001 4280418561
0.00049523811 0.12331429 0.52000004 4280418561
0.0014828573 0.12307715 0.51900005 4280353029
0.0024714288 0.12307715 0.51900005 4280418569
0.0034600003 0.12307715 0.51900005 4280418565
0.0044314289 0.12260287 0.51700002 4280353025
0.0054161907 0.12260287 0.51700002 4280287490
0.006388572 0.12236572 0.51600003 4280287491
0.0073714289 0.12236572 0.51600003 4280287490
0.0083542867 0.12236572 0.51600003 4279763201
0.0093190484 0.12212858 0.51500005 4279238913
0.010280001 0.12189144 0.514 4278845697
0.011259048 0.12189144 0.514 4278386948
0.012238096 0.12189144 0.514 4278518024
0.01319143 0.12165429 0.51300001 4278583556
0.014168573 0.12165429 0.51300001 4278714625
0.015145715 0.12165429 0.51300001 4278845703
0.016122859 0.12165429 0.51300001 4278845708
0.017100001 0.12165429 0.51300001 4278845703
0.018077144 0.12165429 0.51300001 4278583554
0.019054286 0.12165429 0.51300001 4278321410
0.02003143 0.12165429 0.51300001 4278583555
0.021008573 0.12165429 0.51300001 4278845698
0.021985715 0.12165429 0.51300001 4278780162
0.022962859 0.12165429 0.51300001 4278714626
0.023940001 0.12165429 0.51300001 4278518274
0.024917144 0.12165429 0.51300001 4278321666
0.025894288 0.12165429 0.51300001 4278386946
0.02687143 0.12165429 0.51300001 4278452483
0.027848573 0.12165429 0.51300001 4278452483
0.028825717 0.12165429 0.51300001 4278452482
0.029802859 0.12165429 0.51300001 4278518017
0.030780002 0.12165429 0.51300001 4278583558
0.031757146 0.12165429 0.51300001 4278452492
0.032734286 0.12165429 0.51300001 4278321415
0.033777144 0.12189144 0.514 4278321410
0.034756191 0.12189144 0.514 4278321410
0.035735242 0.12189144 0.514 4278452483
0.036785718 0.12212858 0.51500005 4278518018
0.037766669 0.12212858 0.51500005 4278583553
0.03882286 0.12236572 0.51600003 4278583553
0.039805718 0.12236572 0.51600003 4278452481
0.040788572 0.12236572 0.51600003 4278321411
0.041771431 0.12236572 0.51600003 4278386948
0.042837147 0.12260287 0.51700002 4278386947
0.043821909 0.12260287 0.51700002 4278386945
0.044980004 0.12307715 0.51900005 4278321409
0.04632286 0.12402572 0.523 4278321409
0.047319051 0.12402572 0.523 4278321409
0.048315242 0.12402572 0.523 4278386945
0.049405716 0.12426286 0.52400005 4278452737
0.050692383 0.1249743 0.52700001 4279239681
0.052800003 0.12521143 0.528 4279304705
-0.011719048 0.12789048 0.53500003 4278452481
-0.0107 0.12789048 0.53500003 4278386945
-0.0096628582 0.12765144 0.53400004 4278386945
-0.0086295241 0.12741239 0.53300005 4278452481
-0.0075857146 0.12693429 0.53100002 4278780161
-0.0065495241 0.1264562 0.52900004 4279173379
-0.0055209529 0.1259781 0.52700001 4279566597
-0.0045171431 0.1259781 0.52700001 4279894275
-0.0035133336 0.1259781 0.52700001 4280025345
-0.002504762 0.12573905 0.52600002 4280156417
-0.0014942858 0.12502192 0.523 4280287489
-0.00049619051 0.12454382 0.52100003 4280418561
0.00049523811 0.12430477 0.52000004 4280549633
0.0014828573 0.12406572 0.51900005 4280615177
0.0024714288 0.12406572 0.51900005 4280746256
0.0034533336 0.12382668 0.51800001 4280811785
0.0044314289 0.12358763 0.51700002 4280811777
0.0054161907 0.12358763 0.51700002 4280877313
0.006388572 0.12334858 0.51600003 4280942849
0.0073714289 0.12334858 0.51600003 4281073921
0.0083542867 0.12334858 0.51600003 4281139457
0.0093190484 0.12310953 0.51500005 4281204993
0.010280001 0.12287048 0.514 4281600001
0.011259048 0.12287048 0.514 4282056968
0.012238096 0.12287048 0.514 4281270798
0.01319143 0.12263144 0.51300001 4280549640
0.014168573 0.12263144 0.51300001 4280221953
0.015145715 0.12263144 0.51300001 4279894273
0.016122859 0.12263144 0.51300001 4279566593
0.017100001 0.12263144 0.51300001 4279238913
0.018077144 0.12263144 0.51300001 4279042305
0.019054286 0.12263144 0.51300001 4278845697
0.02003143 0.12263144 0.51300001 4278976769
0.021008573 0.12263144 0.51300001 4279173377
0.021985715 0.12263144 0.51300001 4279107841
0.022962859 0.12263144 0.51300001 4279042305
0.023940001 0.12263144 0.51300001 4278780161
0.024917144 0.12263144 0.51300001 4278583553
0.02584381 0.12239239 0.51200002 4278649089
0.02681905 0.12239239 0.51200002 4278649089
0.027848573 0.12263144 0.51300001 4278649089
0.028825717 0.12263144 0.51300001 4278714625
0.029802859 0.12263144 0.51300001 4278714625
0.030780002 0.12263144 0.51300001 4278780162
0.031757146 0.12263144 0.51300001 4278714626
0.032734286 0.12263144 0.51300001 4278583554
0.03371143 0.12263144 0.51300001 4278518017
0.034756191 0.12287048 0.514 4278518017
0.035735242 0.12287048 0.514 4278649089
0.036785718 0.12310953 0.51500005 4278780161
0.037840001 0.12334858 0.51600003 4278714625
0.03882286 0.12334858 0.51600003 4278649089
0.039805718 0.12334858 0.51600003 4278452481
0.040788572 0.12334858 0.51600003 4278321409
0.041771431 0.12334858 0.51600003 4278583553
0.042837147 0.12358763 0.51700002 4278780161
0.043821909 0.12358763 0.51700002 4278583553
0.04480667 0.12358763 0.51700002 4278321409
0.046234287 0.12478287 0.52200001 4278321409
0.047319051 0.12502192 0.523 4278321409
0.048315242 0.12502192 0.523 4278386945
0.049405716 0.12526096 0.52400005 4278452481
0.050788574 0.12621716 0.528 4278845953
0.051794291 0.12621716 0.528 4279304449
0.052900005 0.1264562 0.52900004 4278976769
0.053907622 0.1264562 0.52900004 4278649089
-0.011740953 0.12915048 0.53600001 4278518017
-0.0107 0.12890953 0.53500003 4278386945
-0.0096628582 0.12866858 0.53400004 4278452481
-0.0086295241 0.12842762 0.53300005 4278518017
-0.0076000006 0.12818667 0.53200001 4278976769
-0.0065495241 0.12746382 0.52900004 4279369989
-0.0055314288 0.12722287 0.528 4279632136
-0.0045171431 0.12698191 0.52700001 4279894277
-0.0035133336 0.12698191 0.52700001 4280156417
-0.0025000002 0.12650001 0.52500004 4280353025
-0.0014942858 0.12601811 0.523 4280418561
-0.00049619051 0.1255362 0.52100003 4280418561
0.00049523811 0.12529525 0.52000004 4280680705
0.0014828573 0.1250543 0.51900005 4280877317
0.0024714288 0.1250543 0.51900005 4281073929
0.0034600003 0.1250543 0.51900005 4281204997
0.0044314289 0.12457239 0.51700002 4281336065
0.0054161907 0.12457239 0.51700002 4281401601
0.006388572 0.12433144 0.51600003 4281598209
0.0073714289 0.12433144 0.51600003 4281794817
0.0083542867 0.12433144 0.51600003 4282450177
0.0093190484 0.12409049 0.51500005 4283107587
0.010280001 0.12384953 0.514 4284423685
0.011259048 0.12384953 0.514 4285729799
0.012214286 0.12360858 0.51300001 4284089865
0.01319143 0.12360858 0.51300001 4282450437
0.014168573 0.12360858 0.51300001 4281729281
0.015145715 0.12360858 0.51300001 4280942849
0.016122859 0.12360858 0.51300001 4280287489
0.017100001 0.12360858 0.51300001 4279632129
0.018077144 0.12360858 0.51300001 4279501057
0.019017145 0.12336763 0.51200002 4279304449
0.019992381 0.12336763 0.51200002 4279435521
0.020967621 0.12336763 0.51200002 4279501059
0.021942858 0.12336763 0.51200002 4279435525
0.022918098 0.12336763 0.51200002 4279304451
0.023893334 0.12336763 0.51200002 4279107841
0.024868574 0.12336763 0.51200002 4278845697
0.02584381 0.12336763 0.51200002 4278845697
0.02681905 0.12336763 0.51200002 4278845697
0.027848573 0.12360858 0.51300001 4278911233
0.028769527 0.12336763 0.51200002 4278911233
0.029744763 0.12336763 0.51200002 4278976769
0.030780002 0.12360858 0.51300001 4278976770
0.031757146 0.12360858 0.51300001 4278911234
0.032734286 0.12360858 0.51300001 4278845698
0.03371143 0.12360858 0.51300001 4278780161
0.034756191 0.12384953 0.514 4278649089
0.035735242 0.12384953 0.514 4278845697
0.036785718 0.12409049 0.51500005 4278976769
0.037766669 0.12409049 0.51500005 4278845697
0.03882286 0.12433144 0.51600003 4278649089
0.039805718 0.12433144 0.51600003 4278518017
0.040788572 0.12433144 0.51600003 4278321409
0.041771431 0.12433144 0.51600003 4278780161
0.042837147 0.12457239 0.51700002 4279173377
0.043821909 0.12457239 0.51700002 4278780161
0.04480667 0.12457239 0.51700002 4278321409
0.046234287 0.12577716 0.52200001 4278321409
0.047319051 0.12601811 0.523 4278321409
