# .PCD v0.7 - Point Cloud Data file format
VERSION 0.7
FIELDS x y z rgba
SIZE 4 4 4 4
TYPE F F F U
COUNT 1 1 1 1
WIDTH 1030
HEIGHT 1
VIEWPOINT 0 0 0 1 0 0 0
POINTS 1030
DATA ascii
-0.071780004 0.071780004 0.77700001 4280811779
-0.070300005 0.071780004 0.77700001 4280811777
-0.068997145 0.071964763 0.77900004 4280811777
-0.067513339 0.071964763 0.77900004 4280484097
-0.066029526 0.071964763 0.77900004 4280156417
-0.064545721 0.071964763 0.77900004 4280811777
-0.063061908 0.071964763 0.77900004 4281467137
-0.061578099 0.071964763 0.77900004 4280877313
-0.060094289 0.071964763 0.77900004 4280287489
-0.05868572 0.07205715 0.78000003 4280287489
-0.057200003 0.07205715 0.78000003 4280221953
-0.055714291 0.07205715 0.78000003 4280090881
-0.054506671 0.072426669 0.78400004 4279959809
-0.053013336 0.072426669 0.78400004 4279959809
-0.051520005 0.072426669 0.78400004 4279959809
-0.050154287 0.072611436 0.78600001 4279894273
-0.048842859 0.072888575 0.78900003 4279828737
-0.047460005 0.073073335 0.79100001 4279959809
-0.046069525 0.073258102 0.79300004 4280025345
-0.044671431 0.073442861 0.79500002 4280746497
-0.043265719 0.073627621 0.79700005 4281468676
-0.041800003 0.073720008 0.79800004 4281666823
-0.040280003 0.073720008 0.79800004 4281797124
-0.038760003 0.073720008 0.79800004 4281009921
-0.098686673 0.074580006 0.79100001 4279828737
-0.097180009 0.074580006 0.79100001 4280615169
-0.095673338 0.074580006 0.79100001 4280549633
-0.093571432 0.074108578 0.78600001 4280484104
-0.09207429 0.074108578 0.78600001 4280484110
-0.090346672 0.073920004 0.78400004 4280418569
-0.088626675 0.07373143 0.78200006 4280549635
-0.087137148 0.07373143 0.78200006 4280746242
-0.085428581 0.073542863 0.78000003 4280746241
-0.08394286 0.073542863 0.78000003 4280811777
-0.082351431 0.073448576 0.77900004 4280549633
-0.080867626 0.073448576 0.77900004 4280353025
-0.079383813 0.073448576 0.77900004 4280353025
-0.077900007 0.073448576 0.77900004 4280287489
-0.076416194 0.073448576 0.77900004 4280353025
-0.074932389 0.073448576 0.77900004 4280418564
-0.073448576 0.073448576 0.77900004 4280484103
-0.071964763 0.073448576 0.77900004 4280615172
-0.070480958 0.073448576 0.77900004 4280615169
-0.068997145 0.073448576 0.77900004 4280615169
-0.067513339 0.073448576 0.77900004 4280418561
-0.066029526 0.073448576 0.77900004 4280221953
-0.064628579 0.073542863 0.78000003 4280680705
-0.063142858 0.073542863 0.78000003 4281139457
-0.061657146 0.073542863 0.78000003 4280680705
-0.060171433 0.073542863 0.78000003 4280287489
-0.058836196 0.07373143 0.78200006 4280287489
-0.057346672 0.07373143 0.78200006 4280221953
-0.055857148 0.07373143 0.78200006 4280221953
-0.054506671 0.073920004 0.78400004 4280156417
-0.053013336 0.073920004 0.78400004 4280156417
-0.051651433 0.074108578 0.78600001 4280090881
-0.050154287 0.074108578 0.78600001 4280090881
-0.048780955 0.074297145 0.78800005 4280025345
-0.047460005 0.074580006 0.79100001 4280090881
-0.046069525 0.074768573 0.79300004 4280156417
-0.044671431 0.074957147 0.79500002 4280812289
-0.043265719 0.075145721 0.79700005 4281468679
-0.041747622 0.075145721 0.79700005 4281666060
-0.040229525 0.075145721 0.79700005 4281796871
-0.10044667 0.076279052 0.79300004 4278583553
-0.0989362 0.076279052 0.79300004 4279238913
-0.097425722 0.076279052 0.79300004 4279894273
-0.095673338 0.07608667 0.79100001 4280221953
-0.094166674 0.07608667 0.79100001 4280549636
-0.092308581 0.075798102 0.78800005 4280484104
-0.090577148 0.07560572 0.78600001 4280418565
-0.088853337 0.075413339 0.78400004 4280615170
-0.087360002 0.075413339 0.78400004 4280811778
-0.085647628 0.075220957 0.78200006 4280811779
-0.0841581 0.075220957 0.78200006 4280746242
-0.082457148 0.075028576 0.78000003 4280549634
-0.080971435 0.075028576 0.78000003 4280287489
-0.079383813 0.074932389 0.77900004 4280221953
-0.077900007 0.074932389 0.77900004 4280156417
-0.076416194 0.074932389 0.77900004 4280287489
-0.074932389 0.074932389 0.77900004 4280418819
-0.073448576 0.074932389 0.77900004 4280418564
-0.071964763 0.074932389 0.77900004 4280353027
-0.07057143 0.075028576 0.78000003 4280353025
-0.069085717 0.075028576 0.78000003 4280353025
-0.067600004 0.075028576 0.78000003 4280353025
-0.066114292 0.075028576 0.78000003 4280287491
-0.064628579 0.075028576 0.78000003 4280549638
-0.063142858 0.075028576 0.78000003 4280746243
-0.061657146 0.075028576 0.78000003 4280549633
-0.060325719 0.075220957 0.78200006 4280287489
-0.058986671 0.075413339 0.78400004 4280287489
-0.057493336 0.075413339 0.78400004 4280221953
-0.056000005 0.075413339 0.78400004 4280287489
-0.054645717 0.07560572 0.78600001 4280353025
-0.053148575 0.07560572 0.78600001 4280287489
-0.051651433 0.07560572 0.78600001 4280221953
-0.050281908 0.075798102 0.78800005 4280221953
-0.048842859 0.075894289 0.78900003 4280221953
-0.047460005 0.07608667 0.79100001 4280221953
-0.045953337 0.07608667 0.79100001 4280221953
-0.044783812 0.076663814 0.79700005 4280877313
-0.043320004 0.076760001 0.79800004 4281468676
-0.041800003 0.076760001 0.79800004 4281666055
-0.040280003 0.076760001 0.79800004 4281796868
-0.10044667 0.07778953 0.79300004 4279435521
-0.0989362 0.07778953 0.79300004 4279763201
-0.097425722 0.07778953 0.79300004 4280090881
-0.095673338 0.077593341 0.79100001 4280287489
-0.093928576 0.077397145 0.78900003 4280549633
-0.092308581 0.077299051 0.78800005 4280484353
-0.090577148 0.077102862 0.78600001 4280418817
-0.089080006 0.077102862 0.78600001 4280549889
-0.087582864 0.077102862 0.78600001 4280680963
-0.085866675 0.076906674 0.78400004 4280877572
-0.08437334 0.076906674 0.78400004 4281073923
-0.08266858 0.076710485 0.78200006 4280484098
-0.080971435 0.076514289 0.78000003 4279959810
-0.079485722 0.076514289 0.78000003 4280025345
-0.078000002 0.076514289 0.78000003 4280156417
-0.076514289 0.076514289 0.78000003 4280287745
-0.075028576 0.076514289 0.78000003 4280419329
-0.073542863 0.076514289 0.78000003 4280419073
-0.07224191 0.076710485 0.78200006 4280418817
-0.070752382 0.076710485 0.78200006 4280484353
-0.069262862 0.076710485 0.78200006 4280615169
-0.067773335 0.076710485 0.78200006 4280549633
-0.066283815 0.076710485 0.78200006 4280549638
-0.064794287 0.076710485 0.78200006 4280680714
-0.063304767 0.076710485 0.78200006 4280811782
-0.061815243 0.076710485 0.78200006 4280549633
-0.060480002 0.076906674 0.78400004 4280287489
-0.059137147 0.077102862 0.78600001 4280221953
-0.057640005 0.077102862 0.78600001 4280090881
-0.056142859 0.077102862 0.78600001 4280221953
-0.054645717 0.077102862 0.78600001 4280418561
-0.053148575 0.077102862 0.78600001 4280353025
-0.051782861 0.077299051 0.78800005 4280287489
-0.050281908 0.077299051 0.78800005 4280418561
-0.048842859 0.077397145 0.78900003 4280615169
-0.047460005 0.077593341 0.79100001 4280418561
-0.046069525 0.07778953 0.79300004 4280221953
-0.044783812 0.078181908 0.79700005 4280943361
-0.043320004 0.078280002 0.79800004 4281600001
-0.041904766 0.078476198 0.80000001 4281994753
-0.040481906 0.078672387 0.80200005 4282321921
-0.038954288 0.078672387 0.80200005 4282322177
-0.097425722 0.079300009 0.79300004 4280221953
-0.095673338 0.079100005 0.79100001 4280353025
-0.094166674 0.079100005 0.79100001 4280484359
-0.092425719 0.078900002 0.78900003 4280484622
-0.090807624 0.078800008 0.78800005 4280419336
-0.089080006 0.078600004 0.78600001 4280484866
-0.087582864 0.078600004 0.78600001 4280550146
-0.086085722 0.078600004 0.78600001 4281008643
-0.08437334 0.078400008 0.78400004 4281401858
-0.08266858 0.078200005 0.78200006 4280484098
-0.081179053 0.078200005 0.78200006 4279566593
-0.079689533 0.078200005 0.78200006 4279828737
-0.078200005 0.078200005 0.78200006 4280091137
-0.076514289 0.078000002 0.78000003 4280287745
-0.075220957 0.078200005 0.78200006 4280419073
-0.07373143 0.078200005 0.78200006 4280419329
-0.072426669 0.078400008 0.78400004 4280419073
-0.070933335 0.078400008 0.78400004 4280615425
-0.069262862 0.078200005 0.78200006 4280812033
-0.067773335 0.078200005 0.78200006 4280811777
-0.066453338 0.078400008 0.78400004 4280746243
-0.064960003 0.078400008 0.78400004 4280811782
-0.063466668 0.078400008 0.78400004 4280811779
-0.061973337 0.078400008 0.78400004 4280549633
-0.060480002 0.078400008 0.78400004 4280287489
-0.059137147 0.078600004 0.78600001 4280156417
-0.057640005 0.078600004 0.78600001 4279959809
-0.056142859 0.078600004 0.78600001 4280221953
-0.054784767 0.078800008 0.78800005 4280418561
-0.053283814 0.078800008 0.78800005 4280353025
-0.051782861 0.078800008 0.78800005 4280287489
-0.050345719 0.078900002 0.78900003 4280615169
-0.048966669 0.079100005 0.79100001 4280942849
-0.047580004 0.079300009 0.79300004 4280615169
-0.046185717 0.079500005 0.79500002 4280221953
-0.044840004 0.079800002 0.79800004 4281008385
-0.043320004 0.079800002 0.79800004 4281731585
-0.041904766 0.080000006 0.80000001 4282325505
-0.040481906 0.080200002 0.80200005 4282848261
-0.097425722 0.08081048 0.79300004 4280221953
-0.095915243 0.08081048 0.79300004 4280615425
-0.094404764 0.08081048 0.79300004 4281008910
-0.092660002 0.080606669 0.79100001 4280747034
-0.090922862 0.080402866 0.78900003 4280485646
-0.089306675 0.080300957 0.78800005 4280550658
-0.087582864 0.080097146 0.78600001 4280550402
-0.086085722 0.080097146 0.78600001 4280812289
-0.08458858 0.080097146 0.78600001 4281139713
-0.082880005 0.079893336 0.78400004 4280549633
-0.08138667 0.079893336 0.78400004 4280025345
-0.079893336 0.079893336 0.78400004 4280156417
-0.078200005 0.079689533 0.78200006 4280287745
-0.076710485 0.079689533 0.78200006 4280615425
-0.075220957 0.079689533 0.78200006 4280943105
-0.073920004 0.079893336 0.78400004 4280747009
-0.072426669 0.079893336 0.78400004 4280615937
-0.070933335 0.079893336 0.78400004 4280747009
-0.069440007 0.079893336 0.78400004 4280943361
-0.067946672 0.079893336 0.78400004 4280812033
-0.066453338 0.079893336 0.78400004 4280746241
-0.064960003 0.079893336 0.78400004 4280877313
-0.063466668 0.079893336 0.78400004 4281073921
-0.062131431 0.080097146 0.78600001 4280680705
-0.060634289 0.080097146 0.78600001 4280287489
-0.059137147 0.080097146 0.78600001 4279959809
-0.05778667 0.080300957 0.78800005 4279632129
-0.056285717 0.080300957 0.78800005 4280156417
-0.054784767 0.080300957 0.78800005 4280746241
-0.053283814 0.080300957 0.78800005 4280484097
-0.051848575 0.080402866 0.78900003 4280287489
-0.050345719 0.080402866 0.78900003 4280287489
-0.048966669 0.080606669 0.79100001 4280353025
-0.047580004 0.08081048 0.79300004 4280287489
-0.046185717 0.08101429 0.79500002 4280221953
-0.044783812 0.081218101 0.79700005 4280943105
-0.043428574 0.081523813 0.80000001 4281664769
-0.041904766 0.081523813 0.80000001 4282519553
-0.097671434 0.082528576 0.79500002 4280221953
-0.096157148 0.082528576 0.79500002 4280877313
-0.094642863 0.082528576 0.79500002 4281467399
-0.092660002 0.08211334 0.79100001 4281008910
-0.090922862 0.081905723 0.78900003 4280550408
-0.089420006 0.081905723 0.78900003 4280550402
-0.087805718 0.081801914 0.78800005 4280550145
-0.086304769 0.081801914 0.78800005 4280681217
-0.08458858 0.081594288 0.78600001 4280812033
-0.082880005 0.08138667 0.78400004 4280615169
-0.08138667 0.08138667 0.78400004 4280418561
-0.079893336 0.08138667 0.78400004 4280418561
-0.078400008 0.08138667 0.78400004 4280418561
-0.076906674 0.08138667 0.78400004 4280942849
-0.075413339 0.08138667 0.78400004 4281402114
-0.073920004 0.08138667 0.78400004 4281074946
-0.072611436 0.081594288 0.78600001 4280747266
-0.070933335 0.08138667 0.78400004 4280878849
-0.069440007 0.08138667 0.78400004 4281009153
-0.067946672 0.08138667 0.78400004 4280877825
-0.066622861 0.081594288 0.78600001 4280680961
-0.065125719 0.081594288 0.78600001 4281008385
-0.063628577 0.081594288 0.78600001 4281270529
-0.062131431 0.081594288 0.78600001 4280811777
-0.060634289 0.081594288 0.78600001 4280287489
-0.059287623 0.081801914 0.78800005 4279828737
-0.05778667 0.081801914 0.78800005 4279304449
-0.056285717 0.081801914 0.78800005 4280156417
-0.054854289 0.081905723 0.78900003 4281008385
-0.053351432 0.081905723 0.78900003 4280680705
-0.051848575 0.081905723 0.78900003 4280287489
-0.050473336 0.08211334 0.79100001 4280025345
-0.048966669 0.08211334 0.79100001 4279697665
-0.047580004 0.082320958 0.79300004 4279959809
-0.046185717 0.082528576 0.79500002 4280156418
-0.044783812 0.082736194 0.79700005 4280877570
-0.043428574 0.083047621 0.80000001 4281533698
-0.042009525 0.083255246 0.80200005 4282780417
-0.099560007 0.084360003 0.79800004 4279763201
-0.097917147 0.084254295 0.79700005 4279763201
-0.096520007 0.084360003 0.79800004 4280287489
-0.094880961 0.084254295 0.79700005 4280811777
-0.092894293 0.083831437 0.79300004 4280615425
-0.091153339 0.083620004 0.79100001 4280484097
-0.089646675 0.083620004 0.79100001 4280549889
-0.087917149 0.083408579 0.78900003 4280680705
-0.086414292 0.083408579 0.78900003 4280746497
-0.084803812 0.083302863 0.78800005 4280811777
-0.08309143 0.08309143 0.78600001 4280811777
-0.081594288 0.08309143 0.78600001 4280811777
-0.080097146 0.08309143 0.78600001 4280615169
-0.078600004 0.08309143 0.78600001 4280353025
-0.076906674 0.082880005 0.78400004 4280746241
-0.075413339 0.082880005 0.78400004 4281074178
-0.074108578 0.08309143 0.78600001 4280943619
-0.072611436 0.08309143 0.78600001 4280812546
-0.071114287 0.08309143 0.78600001 4280878081
-0.069617145 0.08309143 0.78600001 4280943617
-0.067946672 0.082880005 0.78400004 4280550145
-0.066622861 0.08309143 0.78600001 4280156673
-0.065125719 0.08309143 0.78600001 4280484097
-0.063628577 0.08309143 0.78600001 4280811777
-0.062131431 0.08309143 0.78600001 4280549633
-0.060634289 0.08309143 0.78600001 4280287489
-0.059287623 0.083302863 0.78800005 4280025345
-0.057860006 0.083408579 0.78900003 4279763201
-0.056357145 0.083408579 0.78900003 4280156417
-0.054854289 0.083408579 0.78900003 4280615169
-0.053351432 0.083408579 0.78900003 4280353025
-0.051848575 0.083408579 0.78900003 4280090881
-0.050473336 0.083620004 0.79100001 4279959809
-0.049090479 0.083831437 0.79300004 4279763201
-0.047580004 0.083831437 0.79300004 4279697665
-0.046185717 0.084042862 0.79500002 4279566594
-0.044783812 0.084254295 0.79700005 4280418819
-0.043537147 0.084782861 0.80200005 4281271042
-0.042114288 0.084994294 0.80400002 4282058497
-0.040582858 0.084994294 0.80400002 4282910978
-0.099560007 0.085880004 0.79800004 4279501057
-0.098040007 0.085880004 0.79800004 4279304449
-0.096520007 0.085880004 0.79800004 4279763201
-0.095000006 0.085880004 0.79800004 4280156417
-0.092894293 0.085341908 0.79300004 4280287489
-0.091383815 0.085341908 0.79300004 4280353025
-0.089873336 0.085341908 0.79300004 4280549633
-0.088140003 0.085126676 0.79100001 4280746241
-0.08663334 0.085126676 0.79100001 4280811777
-0.084911436 0.084911436 0.78900003 4280811777
-0.083302863 0.084803812 0.78800005 4281008385
-0.081594288 0.08458858 0.78600001 4281204993
-0.080097146 0.08458858 0.78600001 4280746241
-0.078600004 0.08458858 0.78600001 4280287489
-0.077102862 0.08458858 0.78600001 4280549633
-0.07560572 0.08458858 0.78600001 4280746498
-0.074108578 0.08458858 0.78600001 4280812290
-0.072611436 0.08458858 0.78600001 4280877826
-0.071114287 0.08458858 0.78600001 4280877569
-0.069617145 0.08458858 0.78600001 4280812033
-0.068120003 0.08458858 0.78600001 4280222209
-0.066622861 0.08458858 0.78600001 4279632385
-0.065125719 0.08458858 0.78600001 4280025345
-0.063628577 0.08458858 0.78600001 4280353025
-0.062131431 0.08458858 0.78600001 4280353025
-0.060788576 0.084803812 0.78800005 4280287489
-0.059287623 0.084803812 0.78800005 4280287489
-0.057860006 0.084911436 0.78900003 4280221953
-0.056357145 0.084911436 0.78900003 4280221953
-0.054854289 0.084911436 0.78900003 4280156417
-0.053486671 0.085126676 0.79100001 4280025345
-0.051980004 0.085126676 0.79100001 4279894273
-0.050473336 0.085126676 0.79100001 4279894273
-0.049090479 0.085341908 0.79300004 4279828737
-0.047580004 0.085341908 0.79300004 4279435521
-0.046301909 0.085772388 0.79700005 4278976770
-0.044783812 0.085772388 0.79700005 4279959810
-0.043645717 0.086525723 0.80400002 4280943362
-0.04221905 0.086740956 0.80600005 4281402625
-0.040582858 0.086525723 0.80400002 4281862145
-0.09828572 0.087619051 0.80000001 4279566593
-0.096761912 0.087619051 0.80000001 4279894273
-0.095238104 0.087619051 0.80000001 4280221953
-0.093128577 0.087071434 0.79500002 4280287489
-0.091383815 0.086852387 0.79300004 4280418561
-0.089873336 0.086852387 0.79300004 4280680705
-0.088140003 0.08663334 0.79100001 4281008385
-0.08663334 0.08663334 0.79100001 4280877313
-0.085126676 0.08663334 0.79100001 4280811777
-0.083408579 0.086414292 0.78900003 4280746241
-0.081801914 0.086304769 0.78800005 4280746241
-0.080300957 0.086304769 0.78800005 4280484097
-0.078800008 0.086304769 0.78800005 4280221953
-0.077102862 0.086085722 0.78600001 4280353025
-0.07560572 0.086085722 0.78600001 4280484353
-0.074108578 0.086085722 0.78600001 4280680961
-0.072611436 0.086085722 0.78600001 4280942849
-0.071114287 0.086085722 0.78600001 4281073921
-0.069617145 0.086085722 0.78600001 4281204993
-0.068120003 0.086085722 0.78600001 4280746241
-0.066622861 0.086085722 0.78600001 4280287489
-0.065125719 0.086085722 0.78600001 4280287489
-0.063628577 0.086085722 0.78600001 4280353025
-0.062289529 0.086304769 0.78800005 4280221953
-0.060788576 0.086304769 0.78800005 4280156417
-0.059287623 0.086304769 0.78800005 4280221953
-0.057860006 0.086414292 0.78900003 4280353025
-0.056357145 0.086414292 0.78900003 4280156417
-0.054993335 0.08663334 0.79100001 4280025345
-0.053621907 0.086852387 0.79300004 4279959809
-0.052111432 0.086852387 0.79300004 4279894273
-0.050728574 0.087071434 0.79500002 4279959809
-0.049214289 0.087071434 0.79500002 4280090881
-0.047820002 0.087290481 0.79700005 4279697665
-0.046360005 0.087400004 0.79800004 4279304449
-0.044952385 0.087619051 0.80000001 4280156673
-0.043645717 0.088057145 0.80400002 4281008897
-0.042114288 0.088057145 0.80400002 4281468417
-0.040582858 0.088057145 0.80400002 4281862401
-0.039148573 0.0882762 0.80600005 4281797377
-0.098531432 0.089365721 0.80200005 4279828737
-0.097003818 0.089365721 0.80200005 4280025345
-0.095238104 0.089142866 0.80000001 4280221953
-0.093128577 0.088585719 0.79500002 4280353025
-0.091383815 0.088362865 0.79300004 4280418561
-0.089873336 0.088362865 0.79300004 4280811777
-0.088140003 0.088140003 0.79100001 4281204993
-0.08663334 0.088140003 0.79100001 4281008385
-0.085126676 0.088140003 0.79100001 4280811777
-0.083408579 0.087917149 0.78900003 4280549633
-0.081801914 0.087805718 0.78800005 4280221953
-0.080300957 0.087805718 0.78800005 4280156417
-0.078800008 0.087805718 0.78800005 4280090881
-0.077102862 0.087582864 0.78600001 4280156417
-0.07560572 0.087582864 0.78600001 4280222209
-0.074108578 0.087582864 0.78600001 4280615425
-0.072611436 0.087582864 0.78600001 4280942849
-0.071114287 0.087582864 0.78600001 4281270529
-0.069617145 0.087582864 0.78600001 4281532673
-0.068120003 0.087582864 0.78600001 4281204993
-0.066792384 0.087805718 0.78800005 4280877314
-0.065291435 0.087805718 0.78800005 4280615170
-0.063790478 0.087805718 0.78800005 4280353026
-0.062368575 0.087917149 0.78900003 4280156417
-0.060865719 0.087917149 0.78900003 4279959809
-0.059362862 0.087917149 0.78900003 4280221953
-0.05800667 0.088140003 0.79100001 4280418561
-0.056500003 0.088140003 0.79100001 4280156417
-0.054993335 0.088140003 0.79100001 4279894273
-0.053621907 0.088362865 0.79300004 4279894273
-0.052111432 0.088362865 0.79300004 4279828737
-0.050856195 0.088808574 0.79700005 4280090881
-0.049338099 0.088808574 0.79700005 4280353025
-0.047820002 0.088808574 0.79700005 4280025345
-0.046360005 0.088920005 0.79800004 4279632129
-0.044952385 0.089142866 0.80000001 4280353281
-0.043645717 0.089588575 0.80400002 4281074689
-0.042114288 0.089588575 0.80400002 4281468673
-0.040582858 0.089588575 0.80400002 4281862913
-0.039148573 0.089811437 0.80600005 4281731585
-0.098777153 0.091120005 0.80400002 4279894273
-0.097245723 0.091120005 0.80400002 4280090881
-0.095476195 0.090893336 0.80200005 4280353025
-0.09336286 0.090326674 0.79700005 4280484097
-0.091614291 0.090100005 0.79500002 4280615169
-0.089873336 0.089873336 0.79300004 4280877313
-0.088362865 0.089873336 0.79300004 4281073921
-0.08663334 0.089646675 0.79100001 4280877313
-0.085126676 0.089646675 0.79100001 4280615169
-0.083620004 0.089646675 0.79100001 4280418561
-0.081905723 0.089420006 0.78900003 4280221953
-0.080402866 0.089420006 0.78900003 4280156417
-0.079100005 0.089646675 0.79100001 4280090881
-0.077397145 0.089420006 0.78900003 4280025345
-0.075894289 0.089420006 0.78900003 4279959809
-0.074391432 0.089420006 0.78900003 4280418561
-0.072796196 0.089306675 0.78800005 4280877313
-0.071385719 0.089420006 0.78900003 4281139457
-0.069882862 0.089420006 0.78900003 4281401601
-0.068293341 0.089306675 0.78800005 4281204993
-0.066877149 0.089420006 0.78900003 4281008386
-0.065374292 0.089420006 0.78900003 4280811779
-0.063871436 0.089420006 0.78900003 4280615170
-0.062368575 0.089420006 0.78900003 4280353025
-0.060865719 0.089420006 0.78900003 4280090881
-0.059513338 0.089646675 0.79100001 4280156417
-0.05800667 0.089646675 0.79100001 4280156417
-0.056500003 0.089646675 0.79100001 4280090881
-0.055132385 0.089873336 0.79300004 4279959809
-0.053621907 0.089873336 0.79300004 4279828737
-0.05224286 0.090100005 0.79500002 4279763201
-0.050856195 0.090326674 0.79700005 4279828737
-0.049338099 0.090326674 0.79700005 4279959809
-0.047880001 0.090440005 0.79800004 4279697665
-0.046476193 0.090666674 0.80000001 4279369985
-0.045064766 0.090893336 0.80200005 4280222209
-0.043645717 0.091120005 0.80400002 4281140225
-0.04221905 0.091346674 0.80600005 4281862913
-0.040683813 0.091346674 0.80600005 4282585345
-0.039148573 0.091346674 0.80600005 4282191617
-0.098777153 0.092651434 0.80400002 4279894273
-0.097245723 0.092651434 0.80400002 4280156417
-0.095238104 0.092190482 0.80000001 4280418561
-0.093714289 0.092190482 0.80000001 4280615169
-0.091844767 0.091844767 0.79700005 4280811778
-0.090100005 0.091614291 0.79500002 4280877315
-0.088585719 0.091614291 0.79500002 4280942850
-0.086852387 0.091383815 0.79300004 4280680705
-0.085341908 0.091383815 0.79300004 4280418561
-0.083620004 0.091153339 0.79100001 4280353025
-0.08211334 0.091153339 0.79100001 4280221953
-0.080606669 0.091153339 0.79100001 4280156418
-0.079100005 0.091153339 0.79100001 4280025345
-0.077593341 0.091153339 0.79100001 4279894273
-0.075894289 0.090922862 0.78900003 4279697665
-0.074391432 0.090922862 0.78900003 4280221953
-0.072888575 0.090922862 0.78900003 4280746246
-0.071385719 0.090922862 0.78900003 4281008396
-0.069882862 0.090922862 0.78900003 4281204998
-0.068380006 0.090922862 0.78900003 4281204993
-0.066877149 0.090922862 0.78900003 4281139458
-0.065374292 0.090922862 0.78900003 4281008386
-0.063871436 0.090922862 0.78900003 4280811778
-0.062368575 0.090922862 0.78900003 4280549633
-0.061020005 0.091153339 0.79100001 4280221953
-0.059513338 0.091153339 0.79100001 4280090881
-0.05800667 0.091153339 0.79100001 4279894273
-0.05664286 0.091383815 0.79300004 4279959809
-0.055132385 0.091383815 0.79300004 4280025345
-0.053757146 0.091614291 0.79500002 4279828993
-0.052374288 0.091844767 0.79700005 4279632129
-0.050920002 0.091960005 0.79800004 4279632129
-0.049400002 0.091960005 0.79800004 4279566593
-0.047880001 0.091960005 0.79800004 4279369985
-0.046476193 0.092190482 0.80000001 4279107841
-0.045064766 0.092420958 0.80200005 4280156417
-0.043754287 0.092881911 0.80600005 4281140737
-0.04221905 0.092881911 0.80600005 4282191873
-0.040683813 0.092881911 0.80600005 4283239937
-0.039148573 0.092881911 0.80600005 4282715905
-0.1005581 0.094417147 0.80600005 4279959809
-0.099022865 0.094417147 0.80600005 4279632129
-0.097245723 0.094182864 0.80400002 4279959809
-0.095476195 0.09394858 0.80200005 4280353025
-0.09394858 0.09394858 0.80200005 4280549633
-0.091960005 0.093480006 0.79800004 4280746243
-0.090326674 0.09336286 0.79700005 4280680708
-0.088585719 0.093128577 0.79500002 4280680707
-0.086852387 0.092894293 0.79300004 4280549633
-0.085341908 0.092894293 0.79300004 4280418561
-0.083831437 0.092894293 0.79300004 4280221953
-0.08211334 0.092660002 0.79100001 4280090882
-0.080606669 0.092660002 0.79100001 4280025346
-0.079100005 0.092660002 0.79100001 4279959810
-0.077593341 0.092660002 0.79100001 4279894273
-0.075894289 0.092425719 0.78900003 4279894273
-0.074391432 0.092425719 0.78900003 4280287489
-0.072888575 0.092425719 0.78900003 4280746252
-0.071566671 0.092660002 0.79100001 4281205014
-0.070060007 0.092660002 0.79100001 4281663756
-0.068380006 0.092425719 0.78900003 4281139457
-0.067046672 0.092660002 0.79100001 4280680961
-0.065540001 0.092660002 0.79100001 4280746241
-0.064033337 0.092660002 0.79100001 4280811777
-0.062526673 0.092660002 0.79100001 4280680705
-0.061020005 0.092660002 0.79100001 4280549633
-0.059513338 0.092660002 0.79100001 4280353025
-0.058153339 0.092894293 0.79300004 4280156417
-0.05664286 0.092894293 0.79300004 4280090881
-0.055271432 0.093128577 0.79500002 4280025345
-0.053892385 0.09336286 0.79700005 4279697665
-0.052440003 0.093480006 0.79800004 4279304449
-0.051047623 0.093714289 0.80000001 4279501057
-0.049523812 0.093714289 0.80000001 4279697665
-0.048000004 0.093714289 0.80000001 4279697665
-0.046592385 0.09394858 0.80200005 4279697665
-0.045177147 0.094182864 0.80400002 4280418817
-0.043754287 0.094417147 0.80600005 4281139969
-0.04221905 0.094417147 0.80600005 4281862401
-0.040784765 0.094651438 0.80800003 4282648577
-0.039245717 0.094651438 0.80800003 4282125313
-0.037613336 0.094417147 0.80600005 4281667841
-0.1005581 0.095952384 0.80600005 4280025601
-0.099022865 0.095952384 0.80600005 4279304705
-0.097487628 0.095952384 0.80600005 4279763201
-0.095714293 0.095714293 0.80400002 4280221953
-0.09394858 0.095476195 0.80200005 4280418817
-0.092190482 0.095238104 0.80000001 4280615426
-0.090440005 0.095000006 0.79800004 4280549891
-0.088808574 0.094880961 0.79700005 4280418562
-0.087071434 0.094642863 0.79500002 4280418561
-0.085341908 0.094404764 0.79300004 4280353025
-0.083831437 0.094404764 0.79300004 4280156417
-0.082320958 0.094404764 0.79300004 4279894273
-0.08081048 0.094404764 0.79300004 4279894274
-0.079300009 0.094404764 0.79300004 4279894273
-0.077593341 0.094166674 0.79100001 4279959809
-0.07608667 0.094166674 0.79100001 4280025601
-0.074580006 0.094166674 0.79100001 4280353025
-0.073073335 0.094166674 0.79100001 4280680710
-0.071566671 0.094166674 0.79100001 4281401612
-0.070060007 0.094166674 0.79100001 4282056966
-0.068553336 0.094166674 0.79100001 4281139457
-0.067046672 0.094166674 0.79100001 4280222209
-0.065540001 0.094166674 0.79100001 4280484097
-0.064033337 0.094166674 0.79100001 4280746241
-0.062526673 0.094166674 0.79100001 4280811777
-0.061020005 0.094166674 0.79100001 4280877313
-0.059513338 0.094166674 0.79100001 4280615169
-0.058153339 0.094404764 0.79300004 4280353025
-0.056785718 0.094642863 0.79500002 4280221953
-0.055410478 0.094880961 0.79700005 4280025345
-0.053892385 0.094880961 0.79700005 4279501057
-0.052440003 0.095000006 0.79800004 4278976769
-0.051047623 0.095238104 0.80000001 4279435521
-0.049523812 0.095238104 0.80000001 4279828737
-0.048000004 0.095238104 0.80000001 4280090881
-0.046708573 0.095714293 0.80400002 4280287489
-0.045289528 0.095952384 0.80600005 4280746242
-0.043862861 0.096190482 0.80800003 4281140225
-0.042323813 0.096190482 0.80800003 4281599745
-0.040784765 0.096190482 0.80800003 4281992961
-0.039245717 0.096190482 0.80800003 4281599490
-0.037613336 0.095952384 0.80600005 4281208577
-0.099022865 0.097487628 0.80600005 4279894529
-0.097487628 0.097487628 0.80600005 4280025345
-0.095714293 0.097245723 0.80400002 4280221953
-0.09394858 0.097003818 0.80200005 4280484097
-0.092190482 0.096761912 0.80000001 4280746241
-0.090440005 0.096520007 0.79800004 4280549633
-0.088920005 0.096520007 0.79800004 4280418561
-0.087290481 0.096399054 0.79700005 4280353025
-0.085557148 0.096157148 0.79500002 4280287489
-0.083831437 0.095915243 0.79300004 4280090881
-0.082320958 0.095915243 0.79300004 4279894273
-0.08081048 0.095915243 0.79300004 4279828737
-0.079300009 0.095915243 0.79300004 4279763201
-0.077593341 0.095673338 0.79100001 4279763457
-0.07608667 0.095673338 0.79100001 4279829761
-0.074580006 0.095673338 0.79100001 4280156673
-0.073073335 0.095673338 0.79100001 4280549633
-0.071566671 0.095673338 0.79100001 4281073921
-0.070060007 0.095673338 0.79100001 4281598465
-0.068553336 0.095673338 0.79100001 4281008641
-0.067046672 0.095673338 0.79100001 4280418817
-0.065540001 0.095673338 0.79100001 4280615169
-0.064033337 0.095673338 0.79100001 4280811777
-0.062526673 0.095673338 0.79100001 4280942849
-0.061174288 0.095915243 0.79300004 4281139457
-0.059663814 0.095915243 0.79300004 4280680705
-0.058300003 0.096157148 0.79500002 4280287489
-0.056785718 0.096157148 0.79500002 4280221953
-0.055410478 0.096399054 0.79700005 4280156417
-0.053960003 0.096520007 0.79800004 4280025345
-0.052440003 0.096520007 0.79800004 4279959809
-0.051047623 0.096761912 0.80000001 4279894273
-0.049523812 0.096761912 0.80000001 4279828737
-0.048120003 0.097003818 0.80200005 4280090881
-0.046708573 0.097245723 0.80400002 4280287490
-0.045289528 0.097487628 0.80600005 4280746498
-0.043862861 0.097729534 0.80800003 4281205762
-0.042323813 0.097729534 0.80800003 4281599489
-0.040885717 0.097971432 0.81000006 4282058498
-0.039245717 0.097729534 0.80800003 4281862914
-0.037706669 0.097729534 0.80800003 4281667586
-0.099022865 0.099022865 0.80600005 4280484610
-0.097487628 0.099022865 0.80600005 4280353026
-0.095714293 0.098777153 0.80400002 4280156417
-0.09394858 0.098531432 0.80200005 4280549633
-0.092190482 0.09828572 0.80000001 4280877313
-0.090666674 0.09828572 0.80000001 4280615169
-0.088920005 0.098040007 0.79800004 4280353025
-0.087290481 0.097917147 0.79700005 4280287489
-0.085557148 0.097671434 0.79500002 4280156417
-0.084042862 0.097671434 0.79500002 4280025345
-0.082320958 0.097425722 0.79300004 4279828737
-0.08081048 0.097425722 0.79300004 4279697665
-0.079300009 0.097425722 0.79300004 4279566593
-0.07778953 0.097425722 0.79300004 4279632385
-0.07608667 0.097180009 0.79100001 4279632385
-0.074580006 0.097180009 0.79100001 4280025345
-0.073073335 0.097180009 0.79100001 4280353025
-0.071566671 0.097180009 0.79100001 4280746241
-0.070060007 0.097180009 0.79100001 4281139713
-0.068553336 0.097180009 0.79100001 4280877825
-0.067046672 0.097180009 0.79100001 4280615426
-0.065705717 0.097425722 0.79300004 4280746243
-0.064195246 0.097425722 0.79300004 4280811778
-0.062684767 0.097425722 0.79300004 4281073921
-0.061174288 0.097425722 0.79300004 4281336065
-0.059663814 0.097425722 0.79300004 4280746241
-0.058300003 0.097671434 0.79500002 4280156417
-0.056928575 0.097917147 0.79700005 4280221953
-0.055410478 0.097917147 0.79700005 4280221953
-0.053960003 0.098040007 0.79800004 4280615169
-0.052571431 0.09828572 0.80000001 4280942849
-0.051047623 0.09828572 0.80000001 4280418561
-0.049647622 0.098531432 0.80200005 4279828737
-0.048240002 0.098777153 0.80400002 4280090881
-0.046824764 0.099022865 0.80600005 4280287489
-0.045401908 0.099268578 0.80800003 4280746242
-0.043971431 0.099514291 0.81000006 4281205761
-0.042428575 0.099514291 0.81000006 4281665025
-0.040986668 0.099760003 0.81200004 4282124801
-0.039342858 0.099514291 0.81000006 4282125826
-0.099022865 0.1005581 0.80600005 4280942851
-0.097487628 0.1005581 0.80600005 4280549634
-0.095714293 0.10030857 0.80400002 4280156418
-0.09394858 0.10005905 0.80200005 4280615169
-0.092190482 0.099809527 0.80000001 4281073921
-0.090666674 0.099809527 0.80000001 4280746241
-0.088920005 0.099560007 0.79800004 4280418561
-0.087400004 0.099560007 0.79800004 4280287489
-0.085772388 0.099435247 0.79700005 4280221953
-0.084042862 0.09918572 0.79500002 4280156417
-0.082528576 0.09918572 0.79500002 4280090881
-0.08081048 0.0989362 0.79300004 4279894273
-0.079300009 0.0989362 0.79300004 4279763201
-0.07778953 0.0989362 0.79300004 4279763201
-0.076279052 0.0989362 0.79300004 4279828737
-0.074580006 0.098686673 0.79100001 4280090881
-0.073073335 0.098686673 0.79100001 4280353025
-0.071747623 0.0989362 0.79300004 4280680705
-0.070237145 0.0989362 0.79300004 4281008385
-0.068726674 0.0989362 0.79300004 4280615425
-0.067216195 0.0989362 0.79300004 4280221955
-0.065705717 0.0989362 0.79300004 4280418564
-0.064195246 0.0989362 0.79300004 4280615171
-0.062684767 0.0989362 0.79300004 4280680705
-0.061174288 0.0989362 0.79300004 4280811777
-0.059663814 0.0989362 0.79300004 4280549633
-0.058446672 0.099435247 0.79700005 4280221953
-0.056928575 0.099435247 0.79700005 4280156417
-0.055480003 0.099560007 0.79800004 4280090881
-0.053960003 0.099560007 0.79800004 4280353025
-0.052571431 0.099809527 0.80000001 4280615169
-0.05117524 0.10005905 0.80200005 4280221953
-0.049771432 0.10030857 0.80400002 4279828737
-0.048240002 0.10030857 0.80400002 4279959809
-0.046940956 0.10080762 0.80800003 4280090881
-0.045401908 0.10080762 0.80800003 4280615425
-0.043971431 0.10105715 0.81000006 4281140225
-0.042428575 0.10105715 0.81000006 4281927937
-0.040986668 0.10130668 0.81200004 4282715649
-0.039537147 0.1015562 0.81400001 4282387713
-0.03798667 0.1015562 0.81400001 4282125825
-0.099022865 0.10209334 0.80600005 4281336326
-0.097245723 0.10184 0.80400002 4280746242
-0.095714293 0.10184 0.80400002 4280156418
-0.09394858 0.10158667 0.80200005 4280746241
-0.092420958 0.10158667 0.80200005 4281270529
-0.090666674 0.10133334 0.80000001 4280877313
-0.089142866 0.10133334 0.80000001 4280418817
-0.087400004 0.10108001 0.79800004 4280353025
-0.085880004 0.10108001 0.79800004 4280222209
-0.084254295 0.10095334 0.79700005 4280287746
-0.082736194 0.10095334 0.79700005 4280353026
-0.08101429 0.10070001 0.79500002 4280156418
-0.079500005 0.10070001 0.79500002 4279894273
-0.07778953 0.10044667 0.79300004 4279959809
-0.076279052 0.10044667 0.79300004 4279959810
-0.074768573 0.10044667 0.79300004 4280156418
-0.073258102 0.10044667 0.79300004 4280287493
-0.071747623 0.10044667 0.79300004 4280549640
-0.070237145 0.10044667 0.79300004 4280811781
-0.068726674 0.10044667 0.79300004 4280353025
-0.067216195 0.10044667 0.79300004 4279828738
-0.065705717 0.10044667 0.79300004 4280090883
-0.064195246 0.10044667 0.79300004 4280353026
-0.062684767 0.10044667 0.79300004 4280353025
-0.061174288 0.10044667 0.79300004 4280287489
-0.059814289 0.10070001 0.79500002 4280287489
-0.058446672 0.10095334 0.79700005 4280287489
-0.057000004 0.10108001 0.79800004 4280156417
-0.055480003 0.10108001 0.79800004 4279959809
-0.054095242 0.10133334 0.80000001 4280090881
-0.052571431 0.10133334 0.80000001 4280221953
-0.05117524 0.10158667 0.80200005 4280025345
-0.049647622 0.10158667 0.80200005 4279828737
-0.048360005 0.10209334 0.80600005 4279894273
-0.046940956 0.10234667 0.80800003 4279894273
-0.045514289 0.10260001 0.81000006 4280484097
-0.043971431 0.10260001 0.81000006 4281074945
-0.042533334 0.10285334 0.81200004 4282190849
-0.04108762 0.10310667 0.81400001 4283239169
-0.039537147 0.10310667 0.81400001 4282714625
-0.038033336 0.10323334 0.81500006 4282126081
-0.10080762 0.10388572 0.80800003 4280681233
-0.099022865 0.10362858 0.80600005 4280681226
-0.097487628 0.10362858 0.80600005 4280353282
-0.095952384 0.10362858 0.80600005 4280090882
-0.094182864 0.10337143 0.80400002 4280549633
-0.092420958 0.10311429 0.80200005 4280942849
-0.090666674 0.10285715 0.80000001 4280681217
-0.089142866 0.10285715 0.80000001 4280419329
-0.087619051 0.10285715 0.80000001 4280353537
-0.085880004 0.10260001 0.79800004 4280222210
-0.084360003 0.10260001 0.79800004 4280222210
-0.082840003 0.10260001 0.79800004 4280287490
-0.081218101 0.10247143 0.79700005 4280090882
-0.079700008 0.10247143 0.79700005 4279959810
-0.077985719 0.10221429 0.79500002 4280025345
-0.076279052 0.10195715 0.79300004 4280090882
-0.074768573 0.10195715 0.79300004 4280287491
-0.073258102 0.10195715 0.79300004 4280484105
-0.071928576 0.10221429 0.79500002 4280680719
-0.070237145 0.10195715 0.79300004 4280811784
-0.068726674 0.10195715 0.79300004 4280418561
-0.067385718 0.10221429 0.79500002 4280090882
-0.065871432 0.10221429 0.79500002 4280221954
-0.064357147 0.10221429 0.79500002 4280353026
-0.062842861 0.10221429 0.79500002 4280221953
-0.061328575 0.10221429 0.79500002 4280090881
-0.059964765 0.10247143 0.79700005 4280090881
-0.058446672 0.10247143 0.79700005 4280090881
-0.057000004 0.10260001 0.79800004 4280025345
-0.055480003 0.10260001 0.79800004 4279959809
-0.054095242 0.10285715 0.80000001 4279828737
-0.052702859 0.10311429 0.80200005 4279697665
-0.051302861 0.10337143 0.80400002 4279632129
-0.049895242 0.10362858 0.80600005 4279632129
-0.048480004 0.10388572 0.80800003 4279697665
-0.047057144 0.10414287 0.81000006 4279828737
-0.04562667 0.10440001 0.81200004 4280353281
-0.044188574 0.10465715 0.81400001 4280943361
-0.042638097 0.10465715 0.81400001 4281796353
-0.041138098 0.10478572 0.81500006 4282714369
-0.039585717 0.10478572 0.81500006 4282322433
-0.038033336 0.10478572 0.81500006 4281865473
-0.10080762 0.10542477 0.80800003 4280287753
-0.099022865 0.10516382 0.80600005 4279960069
-0.097487628 0.10516382 0.80600005 4280025346
-0.095952384 0.10516382 0.80600005 4280025346
-0.094182864 0.10490286 0.80400002 4280353026
-0.092420958 0.10464191 0.80200005 4280615681
-0.090893336 0.10464191 0.80200005 4280550401
-0.089142866 0.10438096 0.80000001 4280419329
-0.087619051 0.10438096 0.80000001 4280353537
-0.086095244 0.10438096 0.80000001 4280222209
-0.084360003 0.10412001 0.79800004 4280221954
-0.082840003 0.10412001 0.79800004 4280156418
-0.081320003 0.10412001 0.79800004 4280090882
-0.079800002 0.10412001 0.79800004 4279959809
-0.078181908 0.10398953 0.79700005 4280090881
-0.076663814 0.10398953 0.79700005 4280156418
-0.074957147 0.10372858 0.79500002 4280418562
-0.073442861 0.10372858 0.79500002 4280680709
-0.071928576 0.10372858 0.79500002 4280746248
-0.07041429 0.10372858 0.79500002 4280811781
-0.068900004 0.10372858 0.79500002 4280549633
-0.067555241 0.10398953 0.79700005 4280287489
-0.066037148 0.10398953 0.79700005 4280287490
-0.064600006 0.10412001 0.79800004 4280287492
-0.063080005 0.10412001 0.79800004 4280090886
-0.061560005 0.10412001 0.79800004 4279828739
-0.060040005 0.10412001 0.79800004 4279894273
-0.058520004 0.10412001 0.79800004 4279894273
-0.057142861 0.10438096 0.80000001 4279894273
-0.05561905 0.10438096 0.80000001 4279894273
-0.054230481 0.10464191 0.80200005 4279501057
-0.052702859 0.10464191 0.80200005 4279107841
-0.051430479 0.10516382 0.80600005 4279238913
-0.050019052 0.10542477 0.80800003 4279369985
-0.048480004 0.10542477 0.80800003 4279566593
-0.047057144 0.10568572 0.81000006 4279697666
-0.045739051 0.10620762 0.81400001 4280221955
-0.044188574 0.10620762 0.81400001 4280746754
-0.042690478 0.1063381 0.81500006 4281467649
-0.041138098 0.1063381 0.81500006 4282190849
-0.039682861 0.10659906 0.81700003 4281929985
-0.03812667 0.10659906 0.81700003 4281602561
-0.095952384 0.10669906 0.80600005 4280221954
-0.094182864 0.10643429 0.80400002 4280615426
-0.092651434 0.10643429 0.80400002 4281074690
-0.090893336 0.10616953 0.80200005 4280812545
-0.089142866 0.10590477 0.80000001 4280484865
-0.087619051 0.10590477 0.80000001 4280485121
-0.086095244 0.10590477 0.80000001 4280484609
-0.084571436 0.10590477 0.80000001 4280353281
-0.082840003 0.10564001 0.79800004 4280221953
-0.081320003 0.10564001 0.79800004 4279828737
-0.079800002 0.10564001 0.79800004 4279501057
-0.078181908 0.10550763 0.79700005 4279828737
-0.076663814 0.10550763 0.79700005 4280156417
-0.074957147 0.10524286 0.79500002 4280287745
-0.073442861 0.10524286 0.79500002 4280353025
-0.072109528 0.10550763 0.79700005 4280615169
-0.070591435 0.10550763 0.79700005 4280811777
-0.069073334 0.10550763 0.79700005 4280549633
-0.067555241 0.10550763 0.79700005 4280221953
-0.066120006 0.10564001 0.79800004 4280287489
-0.064600006 0.10564001 0.79800004 4280353030
-0.063080005 0.10564001 0.79800004 4280156426
-0.061560005 0.10564001 0.79800004 4279894278
-0.060040005 0.10564001 0.79800004 4279959809
-0.058520004 0.10564001 0.79800004 4280090881
-0.057142861 0.10590477 0.80000001 4280156417
-0.05561905 0.10590477 0.80000001 4280221953
-0.054230481 0.10616953 0.80200005 4279828737
-0.052834291 0.10643429 0.80400002 4279501057
-0.051430479 0.10669906 0.80600005 4279697665
-0.050142862 0.10722858 0.81000006 4279894273
-0.048600003 0.10722858 0.81000006 4279894273
-0.047173336 0.10749334 0.81200004 4279959811
-0.045739051 0.1077581 0.81400001 4280484357
-0.044188574 0.1077581 0.81400001 4281008899
-0.042690478 0.10789049 0.81500006 4281731329
-0.041138098 0.10789049 0.81500006 4282454529
-0.039682861 0.10815524 0.81700003 4282257921
-0.03812667 0.10815524 0.81700003 4282126593
-0.094417147 0.10823429 0.80600005 4280943119
-0.092881911 0.10823429 0.80600005 4281533448
-0.090893336 0.10769715 0.80200005 4281074946
-0.089365721 0.10769715 0.80200005 4280550657
-0.087619051 0.10742858 0.80000001 4280682753
-0.086095244 0.10742858 0.80000001 4280747265
-0.084571436 0.10742858 0.80000001 4280484865
-0.083047621 0.10742858 0.80000001 4280222977
-0.081523813 0.10742858 0.80000001 4279632129
-0.080000006 0.10742858 0.80000001 4278977025
-0.078280002 0.10716001 0.79800004 4279566593
-0.076760001 0.10716001 0.79800004 4280156929
-0.075145721 0.10702572 0.79700005 4280091393
-0.073627621 0.10702572 0.79700005 4280025601
-0.072109528 0.10702572 0.79700005 4280418561
-0.070680007 0.10716001 0.79800004 4280812033
-0.069160007 0.10716001 0.79800004 4280484097
-0.067640007 0.10716001 0.79800004 4280156417
-0.066120006 0.10716001 0.79800004 4280287489
-0.064600006 0.10716001 0.79800004 4280418563
-0.063238099 0.10742858 0.80000001 4280221958
-0.061560005 0.10716001 0.79800004 4279959811
-0.06019048 0.10742858 0.80000001 4280090881
-0.058520004 0.10716001 0.79800004 4280221953
-0.057142861 0.10742858 0.80000001 4280418561
-0.0557581 0.10769715 0.80200005 4280549633
-0.054365717 0.10796572 0.80400002 4280222210
-0.052965719 0.10823429 0.80600005 4279828737
-0.0515581 0.10850286 0.80800003 4280090881
-0.050142862 0.10877144 0.81000006 4280353025
-0.048600003 0.10877144 0.81000006 4280287489
-0.047289528 0.10930858 0.81400001 4280156419
-0.04579524 0.10944287 0.81500006 4280746245
-0.044242859 0.10944287 0.81500006 4281271555
-0.042795241 0.10971144 0.81700003 4281994241
-0.041239049 0.10971144 0.81700003 4282650369
-0.039780002 0.10998001 0.81900007 4282651393
-0.094417147 0.10976953 0.80600005 4279960092
-0.093112387 0.11004191 0.80800003 4280026127
-0.091120005 0.10949715 0.80400002 4280091650
-0.089365721 0.10922477 0.80200005 4280222466
-0.087838098 0.10922477 0.80200005 4280288513
-0.086095244 0.10895239 0.80000001 4280419585
-0.084571436 0.10895239 0.80000001 4280289281
-0.083047621 0.10895239 0.80000001 4280225281
-0.081523813 0.10895239 0.80000001 4279764737
-0.080000006 0.10895239 0.80000001 4279370753
-0.078280002 0.10868001 0.79800004 4279895297
-0.076760001 0.10868001 0.79800004 4280485377
-0.075240009 0.10868001 0.79800004 4280353793
-0.073720008 0.10868001 0.79800004 4280222721
-0.072200008 0.10868001 0.79800004 4280878081
-0.070680007 0.10868001 0.79800004 4281598721
-0.069160007 0.10868001 0.79800004 4280615425
-0.067640007 0.10868001 0.79800004 4279697665
-0.066285722 0.10895239 0.80000001 4280221953
-0.064761907 0.10895239 0.80000001 4280811777
-0.063238099 0.10895239 0.80000001 4280484097
-0.061714292 0.10895239 0.80000001 4280156417
-0.06019048 0.10895239 0.80000001 4280221953
-0.058666669 0.10895239 0.80000001 4280287489
-0.057285719 0.10922477 0.80200005 4280287489
-0.0557581 0.10922477 0.80200005 4280353026
-0.054365717 0.10949715 0.80400002 4280090882
-0.052965719 0.10976953 0.80600005 4279828738
-0.051685717 0.11031429 0.81000006 4279894273
-0.050266668 0.11058667 0.81200004 4280025345
-0.048720002 0.11058667 0.81200004 4280090881
-0.047289528 0.11085905 0.81400001 4280221955
-0.04579524 0.11099525 0.81500006 4280746245
-0.044242859 0.11099525 0.81500006 4281336323
-0.042795241 0.11126763 0.81700003 4282058497
-0.041340001 0.11154 0.81900007 4282780161
-0.039780002 0.11154 0.81900007 4282912001
-0.093112387 0.11158096 0.80800003 4278453001
-0.091346674 0.11130477 0.80600005 4279173890
-0.089588575 0.11102858 0.80400002 4279829250
-0.088057145 0.11102858 0.80400002 4279960066
-0.086310484 0.11075239 0.80200005 4280091655
-0.084782861 0.11075239 0.80200005 4280157965
-0.083047621 0.1104762 0.80000001 4280158216
-0.081523813 0.1104762 0.80000001 4279961347
-0.080000006 0.1104762 0.80000001 4279764482
-0.078476198 0.1104762 0.80000001 4280289538
-0.076952383 0.1104762 0.80000001 4280747522
-0.075240009 0.11020001 0.79800004 4280615937
-0.073720008 0.11020001 0.79800004 4280419587
-0.07238096 0.1104762 0.80000001 4281403142
-0.070857145 0.1104762 0.80000001 4282320131
-0.069160007 0.11020001 0.79800004 4280812545
-0.06780953 0.1104762 0.80000001 4279239169
-0.066285722 0.1104762 0.80000001 4280221953
-0.064761907 0.1104762 0.80000001 4281139457
-0.063238099 0.1104762 0.80000001 4280746241
-0.061714292 0.1104762 0.80000001 4280353025
-0.06019048 0.1104762 0.80000001 4280353025
-0.058666669 0.1104762 0.80000001 4280287489
-0.057285719 0.11075239 0.80200005 4280221953
-0.055897146 0.11102858 0.80400002 4280156417
-0.054500956 0.11130477 0.80600005 4280025346
-0.053097147 0.11158096 0.80800003 4279828737
-0.051685717 0.11185715 0.81000006 4279763201
-0.050266668 0.11213334 0.81200004 4279632129
-0.048720002 0.11213334 0.81200004 4279959809
-0.047347624 0.11254763 0.81500006 4280221954
-0.04579524 0.11254763 0.81500006 4280811779
-0.044351432 0.11282381 0.81700003 4281401858
-0.042900003 0.11310001 0.81900007 4282122753
-0.041340001 0.11310001 0.81900007 4282844929
-0.039780002 0.11310001 0.81900007 4283238913
-0.038220003 0.11310001 0.81900007 4283632642
-0.093803816 0.11396001 0.81400001 4279108354
-0.091346674 0.11284 0.80600005 4279370241
-0.089588575 0.11256 0.80400002 4279632386
-0.088057145 0.11256 0.80400002 4279697922
-0.086525723 0.11256 0.80400002 4279829006
-0.084782861 0.11228 0.80200005 4279829273
-0.083047621 0.11200001 0.80000001 4279829007
-0.081523813 0.11200001 0.80000001 4279632900
-0.080000006 0.11200001 0.80000001 4279501572
-0.078476198 0.11200001 0.80000001 4279632899
-0.076952383 0.11200001 0.80000001 4279829250
-0.075428575 0.11200001 0.80000001 4279895041
-0.073904768 0.11200001 0.80000001 4279960582
-0.07238096 0.11200001 0.80000001 4280616202
-0.070857145 0.11200001 0.80000001 4281271302
-0.069333337 0.11200001 0.80000001 4280484609
-0.067979053 0.11228 0.80200005 4279697665
-0.06645143 0.11228 0.80200005 4280353025
-0.064761907 0.11200001 0.80000001 4281008385
-0.063396193 0.11228 0.80200005 4280680705
-0.061714292 0.11200001 0.80000001 4280418561
-0.06019048 0.11200001 0.80000001 4280484097
-0.058666669 0.11200001 0.80000001 4280615169
-0.057428576 0.11256 0.80400002 4280418561
-0.056036193 0.11284 0.80600005 4280221953
-0.054636195 0.11312 0.80800003 4280025345
-0.053228576 0.1134 0.81000006 4279894273
-0.051813338 0.11368001 0.81200004 4279828737
-0.050390478 0.11396001 0.81400001 4279763201
-0.048840005 0.11396001 0.81400001 4279959809
-0.047347624 0.11410001 0.81500006 4280221953
-0.04590762 0.11438001 0.81700003 4280746241
-0.044351432 0.11438001 0.81700003 4281270529
-0.042795241 0.11438001 0.81700003 4281860865
-0.041340001 0.11466001 0.81900007 4282516737
-0.039780002 0.11466001 0.81900007 4282910977
-0.03812667 0.11438001 0.81700003 4283304707
-0.093803816 0.11551049 0.81400001 4279763459
-0.091573343 0.11465906 0.80800003 4279566595
-0.089811437 0.11437525 0.80600005 4279369987
-0.0882762 0.11437525 0.80600005 4279501058
-0.086525723 0.11409143 0.80400002 4279566856
-0.084994294 0.11409143 0.80400002 4279566605
-0.083255246 0.11380763 0.80200005 4279501321
-0.081727624 0.11380763 0.80200005 4279370245
-0.080200002 0.11380763 0.80200005 4279173636
-0.078672387 0.11380763 0.80200005 4279042308
