# .PCD v0.7 - Point Cloud Data file format
VERSION 0.7
FIELDS x y z rgba
SIZE 4 4 4 4
TYPE F F F U
COUNT 1 1 1 1
WIDTH 1052
HEIGHT 1
VIEWPOINT 0 0 0 1 0 0 0
POINTS 1052
DATA ascii
-0.064204767 0.10259525 0.69500005 4280746241
-0.062880956 0.10259525 0.69500005 4280942849
-0.061557148 0.10259525 0.69500005 4281139457
-0.060233336 0.10259525 0.69500005 4281139457
-0.058909528 0.10259525 0.69500005 4281204993
-0.057585716 0.10259525 0.69500005 4281008385
-0.056261908 0.10259525 0.69500005 4280811777
-0.0549381 0.10259525 0.69500005 4280549633
-0.053614289 0.10259525 0.69500005 4280287489
-0.052290481 0.10259525 0.69500005 4280090881
-0.050966669 0.10259525 0.69500005 4279894273
-0.049642861 0.10259525 0.69500005 4279632129
-0.048319049 0.10259525 0.69500005 4279369985
-0.046995241 0.10259525 0.69500005 4279435521
-0.045671433 0.10259525 0.69500005 4279501057
-0.044475242 0.10289048 0.69700003 4279435521
-0.043147624 0.10289048 0.69700003 4279435521
-0.041820005 0.10289048 0.69700003 4279173377
-0.040550478 0.1030381 0.69800001 4278976769
-0.039333336 0.10333334 0.70000005 4279304449
-0.038000003 0.10333334 0.70000005 4279566593
-0.03671905 0.10348096 0.70100003 4279828737
-0.035484765 0.10377619 0.70300001 4280090881
-0.034194287 0.10392382 0.70400006 4280680961
-0.032993335 0.10436668 0.70700002 4281336835
-0.031646669 0.10436668 0.70700002 4281993988
-0.030342858 0.10451429 0.708 4282717187
-0.029076193 0.10480953 0.71000004 4283046145
-0.027762858 0.10495715 0.71100003 4283374337
-0.02648286 0.10525239 0.71300006 4283046145
-0.025160002 0.1054 0.71400005 4282784515
-0.023900002 0.10584287 0.71700001 4283046149
-0.022597143 0.1061381 0.71900004 4283307523
-0.087351434 0.10631143 0.71100003 4281467137
-0.085634291 0.10586286 0.708 4281401601
-0.084285721 0.10586286 0.708 4281336065
-0.082820006 0.10571334 0.70700002 4281598209
-0.081242859 0.10541429 0.70500004 4281794817
-0.079786673 0.10526477 0.70400006 4282384641
-0.078334294 0.10511524 0.70300001 4282908929
-0.076995246 0.10511524 0.70300001 4282450177
-0.075440958 0.1048162 0.70100003 4281925889
-0.074105717 0.1048162 0.70100003 4281532673
-0.072666675 0.10466667 0.70000005 4281139457
-0.071333341 0.10466667 0.70000005 4280942849
-0.069800004 0.10436763 0.69800001 4280746241
-0.068372384 0.1042181 0.69700003 4280549633
-0.067044765 0.1042181 0.69700003 4280353025
-0.065717146 0.1042181 0.69700003 4280549633
-0.064204767 0.10391905 0.69500005 4280746241
-0.062880956 0.10391905 0.69500005 4281139457
-0.061557148 0.10391905 0.69500005 4281467137
-0.060233336 0.10391905 0.69500005 4281532673
-0.058909528 0.10391905 0.69500005 4281532673
-0.057585716 0.10391905 0.69500005 4281336065
-0.056261908 0.10391905 0.69500005 4281139457
-0.0549381 0.10391905 0.69500005 4280746241
-0.053614289 0.10391905 0.69500005 4280287489
-0.052290481 0.10391905 0.69500005 4280090881
-0.050966669 0.10391905 0.69500005 4279894273
-0.049642861 0.10391905 0.69500005 4279959809
-0.048458099 0.1042181 0.69700003 4280025345
-0.04713048 0.1042181 0.69700003 4279828737
-0.045802861 0.1042181 0.69700003 4279566593
-0.044475242 0.1042181 0.69700003 4279566593
-0.043147624 0.1042181 0.69700003 4279501057
-0.041880004 0.10436763 0.69800001 4279501057
-0.040550478 0.10436763 0.69800001 4279501057
-0.039333336 0.10466667 0.70000005 4279697665
-0.038054287 0.1048162 0.70100003 4279894273
-0.03671905 0.1048162 0.70100003 4280025346
-0.035484765 0.10511524 0.70300001 4280156418
-0.034194287 0.10526477 0.70400006 4280811778
-0.032900002 0.10541429 0.70500004 4281467908
-0.031646669 0.10571334 0.70700002 4282124807
-0.030342858 0.10586286 0.708 4282717700
-0.029076193 0.10616191 0.71000004 4282981121
-0.027762858 0.10631143 0.71100003 4283177473
-0.02648286 0.10661048 0.71300006 4283045633
-0.025230478 0.10705905 0.71600002 4282849538
-0.023900002 0.10720858 0.71700001 4283045379
-0.022628574 0.10765715 0.72000003 4283242498
-0.085634291 0.10721143 0.708 4282253825
-0.084166676 0.10706001 0.70700002 4283302145
-0.082820006 0.10706001 0.70700002 4283172097
-0.081242859 0.10675715 0.70500004 4283105537
-0.079786673 0.10660572 0.70400006 4282909185
-0.078334294 0.10645429 0.70300001 4282777857
-0.076995246 0.10645429 0.70300001 4282253569
-0.075440958 0.10615144 0.70100003 4281794817
-0.074105717 0.10615144 0.70100003 4281401601
-0.072770484 0.10615144 0.70100003 4281073921
-0.071333341 0.10600001 0.70000005 4280811777
-0.069800004 0.10569715 0.69800001 4280549633
-0.068372384 0.10554572 0.69700003 4280484097
-0.067044765 0.10554572 0.69700003 4280418561
-0.065717146 0.10554572 0.69700003 4280680705
-0.064389527 0.10554572 0.69700003 4280942849
-0.063061908 0.10554572 0.69700003 4281270529
-0.061734289 0.10554572 0.69700003 4281663745
-0.06040667 0.10554572 0.69700003 4282056961
-0.059079051 0.10554572 0.69700003 4282450177
-0.057585716 0.10524286 0.69500005 4281860353
-0.056261908 0.10524286 0.69500005 4281270529
-0.0549381 0.10524286 0.69500005 4280811777
-0.053614289 0.10524286 0.69500005 4280287489
-0.052290481 0.10524286 0.69500005 4280090881
-0.051113337 0.10554572 0.69700003 4279894273
-0.049642861 0.10524286 0.69500005 4279763201
-0.048458099 0.10554572 0.69700003 4279697665
-0.04713048 0.10554572 0.69700003 4279697665
-0.045802861 0.10554572 0.69700003 4279632385
-0.044475242 0.10554572 0.69700003 4279763201
-0.043147624 0.10554572 0.69700003 4279959809
-0.041880004 0.10569715 0.69800001 4279763201
-0.04066667 0.10600001 0.70000005 4279566593
-0.039389525 0.10615144 0.70100003 4279894273
-0.038054287 0.10615144 0.70100003 4280156418
-0.03671905 0.10615144 0.70100003 4280156418
-0.035484765 0.10645429 0.70300001 4280156418
-0.034194287 0.10660572 0.70400006 4280811778
-0.032900002 0.10675715 0.70500004 4281532678
-0.031646669 0.10706001 0.70700002 4282126857
-0.030342858 0.10721143 0.708 4282785797
-0.029076193 0.10751429 0.71000004 4283046913
-0.027762858 0.10766573 0.71100003 4283374081
-0.02648286 0.10796858 0.71300006 4283046145
-0.025265716 0.10857429 0.71700001 4282718721
-0.023966668 0.10887715 0.71900004 4282980609
-0.022628574 0.10902858 0.72000003 4283308545
-0.021345716 0.10948286 0.72300005 4283374337
-0.085634291 0.10856001 0.708 4283041285
-0.084166676 0.10840667 0.70700002 4285270042
-0.082820006 0.10840667 0.70700002 4284813870
-0.081473336 0.10840667 0.70700002 4284353069
-0.079900004 0.1081 0.70500004 4283499307
-0.078445718 0.10794667 0.70400006 4282648342
-0.076995246 0.10779334 0.70300001 4282122497
-0.075440958 0.10748667 0.70100003 4281598209
-0.074105717 0.10748667 0.70100003 4281270529
-0.072770484 0.10748667 0.70100003 4280942849
-0.071333341 0.10733334 0.70000005 4280615169
-0.069800004 0.10702667 0.69800001 4280287490
-0.068470478 0.10702667 0.69800001 4280353026
-0.067140959 0.10702667 0.69800001 4280418562
-0.065717146 0.10687334 0.69700003 4280746241
-0.064389527 0.10687334 0.69700003 4281073921
-0.063061908 0.10687334 0.69700003 4281467138
-0.061734289 0.10687334 0.69700003 4281795081
-0.06040667 0.10687334 0.69700003 4282581521
-0.059079051 0.10687334 0.69700003 4283367945
-0.057751432 0.10687334 0.69700003 4282384897
-0.056423813 0.10687334 0.69700003 4281401601
-0.055096194 0.10687334 0.69700003 4280877313
-0.053768575 0.10687334 0.69700003 4280287489
-0.052440956 0.10687334 0.69700003 4280090881
-0.051113337 0.10687334 0.69700003 4279828737
-0.049785718 0.10687334 0.69700003 4279632129
-0.048458099 0.10687334 0.69700003 4279369985
-0.04713048 0.10687334 0.69700003 4279566593
-0.045802861 0.10687334 0.69700003 4279697921
-0.044475242 0.10687334 0.69700003 4280025345
-0.043147624 0.10687334 0.69700003 4280353025
-0.041880004 0.10702667 0.69800001 4280025345
-0.04066667 0.10733334 0.70000005 4279632129
-0.039333336 0.10733334 0.70000005 4280025345
-0.038054287 0.10748667 0.70100003 4280418561
-0.03671905 0.10748667 0.70100003 4280287490
-0.035484765 0.10779334 0.70300001 4280156418
-0.034194287 0.10794667 0.70400006 4280877315
-0.032993335 0.10840667 0.70700002 4281534724
-0.031691432 0.10856001 0.708 4282195461
-0.030428573 0.10886668 0.71000004 4282850307
-0.029117145 0.10902001 0.71100003 4283177474
-0.027840953 0.10932668 0.71300006 4283505414
-0.026520003 0.10948001 0.71400005 4283046154
-0.025265716 0.10994001 0.71700001 4282587654
-0.023966668 0.11024667 0.71900004 4282980866
-0.022628574 0.11040001 0.72000003 4283308804
-0.021345716 0.11086001 0.72300005 4283505414
-0.085634291 0.10990858 0.708 4281664521
-0.084285721 0.10990858 0.708 4282779698
-0.082937151 0.10990858 0.708 4284616027
-0.081473336 0.10975334 0.70700002 4286452312
-0.079900004 0.10944287 0.70500004 4285797461
-0.078445718 0.10928763 0.70400006 4285077291
-0.076995246 0.10913239 0.70300001 4283041537
-0.075656198 0.10913239 0.70300001 4280942849
-0.074105717 0.10882191 0.70100003 4280942849
-0.072770484 0.10882191 0.70100003 4280942849
-0.071333341 0.10866667 0.70000005 4280418561
-0.069800004 0.1083562 0.69800001 4279959810
-0.068470478 0.1083562 0.69800001 4280156419
-0.067140959 0.1083562 0.69800001 4280418562
-0.065717146 0.10820096 0.69700003 4280549633
-0.064389527 0.10820096 0.69700003 4280746242
-0.063061908 0.10820096 0.69700003 4281073922
-0.061734289 0.10820096 0.69700003 4281401873
-0.06040667 0.10820096 0.69700003 4281926176
-0.059079051 0.10820096 0.69700003 4282450705
-0.057751432 0.10820096 0.69700003 4281795073
-0.056423813 0.10820096 0.69700003 4281139457
-0.0549381 0.10789049 0.69500005 4280615169
-0.053768575 0.10820096 0.69700003 4280090881
-0.052440956 0.10820096 0.69700003 4279959809
-0.051113337 0.10820096 0.69700003 4279894273
-0.049785718 0.10820096 0.69700003 4279501057
-0.048458099 0.10820096 0.69700003 4279173377
-0.04713048 0.10820096 0.69700003 4279435521
-0.045802861 0.10820096 0.69700003 4279632385
-0.044539049 0.1083562 0.69800001 4279960065
-0.043147624 0.10820096 0.69700003 4280287745
-0.041880004 0.1083562 0.69800001 4279763457
-0.04066667 0.10866667 0.70000005 4279304449
-0.039333336 0.10866667 0.70000005 4279763201
-0.038054287 0.10882191 0.70100003 4280221953
-0.03671905 0.10882191 0.70100003 4280221953
-0.035383813 0.10882191 0.70100003 4280156419
-0.034194287 0.10928763 0.70400006 4280811780
-0.032900002 0.10944287 0.70500004 4281532931
-0.031691432 0.10990858 0.708 4282126337
-0.030428573 0.11021905 0.71000004 4282784002
-0.029117145 0.11037429 0.71100003 4283112706
-0.027880002 0.11084001 0.71400005 4283440650
-0.026594287 0.11115048 0.71600002 4283177490
-0.025265716 0.11130572 0.71700001 4282915338
-0.023966668 0.11161619 0.71900004 4283111938
-0.022628574 0.11177143 0.72000003 4283308807
-0.021345716 0.11223715 0.72300005 4283571467
-0.086239055 0.11204287 0.71300006 4280353039
-0.084642865 0.11172858 0.71100003 4280223013
-0.082937151 0.11125715 0.708 4284418107
-0.081473336 0.11110001 0.70700002 4288549697
-0.079900004 0.11078572 0.70500004 4288029256
-0.078445718 0.11062858 0.70400006 4287501348
-0.076995246 0.11047143 0.70300001 4283892225
-0.075440958 0.11015715 0.70100003 4280287489
-0.074105717 0.11015715 0.70100003 4280615169
-0.072770484 0.11015715 0.70100003 4280877313
-0.071333341 0.11000001 0.70000005 4280221953
-0.069800004 0.10968572 0.69800001 4279566594
-0.068470478 0.10968572 0.69800001 4279959810
-0.067140959 0.10968572 0.69800001 4280353026
-0.065717146 0.10952858 0.69700003 4280353025
-0.064389527 0.10952858 0.69700003 4280353025
-0.063061908 0.10952858 0.69700003 4280680706
-0.061734289 0.10952858 0.69700003 4281008393
-0.06040667 0.10952858 0.69700003 4281270545
-0.059079051 0.10952858 0.69700003 4281532937
-0.057751432 0.10952858 0.69700003 4281204993
-0.056423813 0.10952858 0.69700003 4280811777
-0.055096194 0.10952858 0.69700003 4280353025
-0.053768575 0.10952858 0.69700003 4279894273
-0.052440956 0.10952858 0.69700003 4279894273
-0.051113337 0.10952858 0.69700003 4279894273
-0.049785718 0.10952858 0.69700003 4279435521
-0.048458099 0.10952858 0.69700003 4278976769
-0.04713048 0.10952858 0.69700003 4279304449
-0.045802861 0.10952858 0.69700003 4279566593
-0.044475242 0.10952858 0.69700003 4279894273
-0.043147624 0.10952858 0.69700003 4280156673
-0.041880004 0.10968572 0.69800001 4279566849
-0.04066667 0.11000001 0.70000005 4278977025
-0.039333336 0.11000001 0.70000005 4279501313
-0.038054287 0.11015715 0.70100003 4280025345
-0.03671905 0.11015715 0.70100003 4280090881
-0.035383813 0.11015715 0.70100003 4280156418
-0.034194287 0.11062858 0.70400006 4280811779
-0.032993335 0.11110001 0.70700002 4281467650
-0.031691432 0.11125715 0.708 4282123522
-0.030471431 0.11172858 0.71100003 4282716930
-0.029199049 0.11204287 0.71300006 4283048194
-0.027880002 0.11220001 0.71400005 4283308038
-0.026594287 0.11251429 0.71600002 4283241739
-0.025336193 0.11298572 0.71900004 4283176200
-0.023966668 0.11298572 0.71900004 4283242245
-0.022628574 0.11314286 0.72000003 4283307782
-0.087720007 0.11356001 0.71400005 4280813323
-0.086239055 0.11340096 0.71300006 4280812308
-0.084642865 0.11308286 0.71100003 4280877336
-0.083171435 0.11292382 0.71000004 4282582555
-0.081588574 0.11260572 0.708 4284354091
-0.080126673 0.11244667 0.70700002 4284158266
-0.078445718 0.11196953 0.70400006 4283962398
-0.07710477 0.11196953 0.70400006 4282320385
-0.075656198 0.11181048 0.70300001 4280680705
-0.074105717 0.11149239 0.70100003 4280746241
-0.072770484 0.11149239 0.70100003 4280811777
-0.071435243 0.11149239 0.70100003 4280353025
-0.070000008 0.11133334 0.70000005 4279959809
-0.068470478 0.11101525 0.69800001 4280221953
-0.067140959 0.11101525 0.69800001 4280549633
-0.065717146 0.1108562 0.69700003 4280484097
-0.064389527 0.1108562 0.69700003 4280353025
-0.063061908 0.1108562 0.69700003 4280746241
-0.061734289 0.1108562 0.69700003 4281139458
-0.06040667 0.1108562 0.69700003 4281204994
-0.059079051 0.1108562 0.69700003 4281336066
-0.057751432 0.1108562 0.69700003 4281073921
-0.056423813 0.1108562 0.69700003 4280811777
-0.055096194 0.1108562 0.69700003 4280353025
-0.053768575 0.1108562 0.69700003 4279894273
-0.052440956 0.1108562 0.69700003 4280025345
-0.051113337 0.1108562 0.69700003 4280156417
-0.049785718 0.1108562 0.69700003 4279894273
-0.048458099 0.1108562 0.69700003 4279697665
-0.04713048 0.1108562 0.69700003 4279697665
-0.045802861 0.1108562 0.69700003 4279763201
-0.044475242 0.1108562 0.69700003 4280221953
-0.043147624 0.1108562 0.69700003 4280746497
-0.041880004 0.11101525 0.69800001 4280156673
-0.04066667 0.11133334 0.70000005 4279632129
-0.039333336 0.11133334 0.70000005 4280156417
-0.038054287 0.11149239 0.70100003 4280680705
-0.03671905 0.11149239 0.70100003 4280418561
-0.035484765 0.11181048 0.70300001 4280156417
-0.034194287 0.11196953 0.70400006 4280812033
-0.032993335 0.11244667 0.70700002 4281467650
-0.031780954 0.11292382 0.71000004 4282058754
-0.030557144 0.11340096 0.71300006 4282584322
-0.029240001 0.11356001 0.71400005 4282913026
-0.027958097 0.1138781 0.71600002 4283239683
-0.02663143 0.11403715 0.71700001 4283240451
-0.025336193 0.11435524 0.71900004 4283240197
-0.023966668 0.11435524 0.71900004 4283240967
-0.087720007 0.11492001 0.71400005 4281206281
-0.086239055 0.11475906 0.71300006 4281336589
-0.084642865 0.11443715 0.71100003 4281467407
-0.083171435 0.1142762 0.71000004 4280811794
-0.08181905 0.1142762 0.71000004 4280157208
-0.080240004 0.11395429 0.708 4280287518
-0.078557149 0.11347143 0.70500004 4280419855
-0.07710477 0.11331049 0.70400006 4280746241
-0.075656198 0.11314953 0.70300001 4281008385
-0.07431715 0.11314953 0.70300001 4280877313
-0.072770484 0.11282763 0.70100003 4280746241
-0.071435243 0.11282763 0.70100003 4280549633
-0.070000008 0.11266667 0.70000005 4280287489
-0.068666674 0.11266667 0.70000005 4280549633
-0.067140959 0.11234477 0.69800001 4280746242
-0.065717146 0.11218382 0.69700003 4280549634
-0.064389527 0.11218382 0.69700003 4280353026
-0.063061908 0.11218382 0.69700003 4280811777
-0.061734289 0.11218382 0.69700003 4281204993
-0.06040667 0.11218382 0.69700003 4281139458
-0.059079051 0.11218382 0.69700003 4281073925
-0.057751432 0.11218382 0.69700003 4280942856
-0.056423813 0.11218382 0.69700003 4280746245
-0.055096194 0.11218382 0.69700003 4280353026
-0.053768575 0.11218382 0.69700003 4279894273
-0.052440956 0.11218382 0.69700003 4280156417
-0.051113337 0.11218382 0.69700003 4280353029
-0.049785718 0.11218382 0.69700003 4280418569
-0.048458099 0.11218382 0.69700003 4280418565
-0.04713048 0.11218382 0.69700003 4280156417
-0.045802861 0.11218382 0.69700003 4279894273
-0.044539049 0.11234477 0.69800001 4280615169
-0.043209527 0.11234477 0.69800001 4281270529
-0.041880004 0.11234477 0.69800001 4280811777
-0.04066667 0.11266667 0.70000005 4280287489
-0.039389525 0.11282763 0.70100003 4280811777
-0.038054287 0.11282763 0.70100003 4281270529
-0.03671905 0.11282763 0.70100003 4280746241
-0.035484765 0.11314953 0.70300001 4280156417
-0.034242861 0.11347143 0.70500004 4280811778
-0.033040002 0.11395429 0.708 4281467906
-0.031780954 0.1142762 0.71000004 4281993474
-0.030557144 0.11475906 0.71300006 4282452738
-0.029240001 0.11492001 0.71400005 4282845699
-0.027958097 0.11524191 0.71600002 4283173891
-0.026705716 0.11572477 0.71900004 4283239683
-0.025336193 0.11572477 0.71900004 4283240451
-0.024000002 0.11588572 0.72000003 4283305732
-0.087965719 0.11660572 0.71600002 4280813063
-0.086360008 0.11628 0.71400005 4281402630
-0.084880956 0.11611715 0.71300006 4281991943
-0.08328858 0.11579143 0.71100003 4281270792
-0.08181905 0.11562858 0.71000004 4280549637
-0.080240004 0.11530287 0.708 4280680705
-0.078557149 0.1148143 0.70500004 4280746241
-0.07710477 0.11465143 0.70400006 4280877825
-0.075656198 0.11448858 0.70300001 4281008385
-0.07431715 0.11448858 0.70300001 4280877825
-0.072770484 0.11416286 0.70100003 4280811777
-0.071435243 0.11416286 0.70100003 4280615169
-0.070000008 0.11400001 0.70000005 4280353025
-0.068666674 0.11400001 0.70000005 4280353025
-0.067140959 0.11367429 0.69800001 4280418562
-0.065811433 0.11367429 0.69800001 4280090883
-0.064389527 0.11351144 0.69700003 4279828738
-0.063061908 0.11351144 0.69700003 4280287489
-0.061734289 0.11351144 0.69700003 4280811777
-0.06040667 0.11351144 0.69700003 4280746241
-0.059079051 0.11351144 0.69700003 4280746248
-0.057751432 0.11351144 0.69700003 4280680718
-0.056423813 0.11351144 0.69700003 4280680712
-0.055096194 0.11351144 0.69700003 4280353026
-0.053768575 0.11351144 0.69700003 4280090882
-0.052440956 0.11351144 0.69700003 4280221953
-0.05118667 0.11367429 0.69800001 4280418569
-0.049785718 0.11351144 0.69700003 4280680721
-0.048458099 0.11351144 0.69700003 4280942857
-0.047198098 0.11367429 0.69800001 4280418561
-0.045868576 0.11367429 0.69800001 4279894273
-0.044539049 0.11367429 0.69800001 4280221953
-0.043209527 0.11367429 0.69800001 4280615169
-0.042000003 0.11400001 0.70000005 4280353025
-0.040724766 0.11416286 0.70100003 4280156417
-0.039389525 0.11416286 0.70100003 4280353025
-0.038054287 0.11416286 0.70100003 4280615169
-0.036823813 0.11448858 0.70300001 4280287489
-0.035484765 0.11448858 0.70300001 4280025346
-0.034340002 0.11514001 0.70700002 4280615426
-0.033040002 0.11530287 0.708 4281205762
-0.031825718 0.11579143 0.71100003 4281731074
-0.030557144 0.11611715 0.71300006 4282255875
-0.029240001 0.11628 0.71400005 4282649603
-0.027958097 0.11660572 0.71600002 4283042563
-0.026705716 0.11709429 0.71900004 4283043586
-0.025336193 0.11709429 0.71900004 4283044610
-0.087965719 0.11796953 0.71600002 4280419333
-0.086601913 0.11796953 0.71600002 4281468934
-0.085000008 0.11764001 0.71400005 4282451718
-0.083522864 0.11747525 0.71300006 4281729798
-0.081934288 0.11714572 0.71100003 4280943364
-0.080466673 0.11698096 0.71000004 4281008386
-0.078780003 0.11648668 0.70700002 4281075714
-0.077214293 0.11615715 0.70500004 4281010178
-0.075763814 0.11599239 0.70400006 4280944385
-0.07431715 0.11582763 0.70300001 4280944641
-0.072978102 0.11582763 0.70300001 4280878081
-0.071435243 0.1154981 0.70100003 4280680961
-0.070100002 0.1154981 0.70100003 4280418561
-0.068666674 0.11533334 0.70000005 4280221953
-0.067333341 0.11533334 0.70000005 4280025346
-0.065811433 0.11500382 0.69800001 4279697667
-0.064481907 0.11500382 0.69800001 4279304450
-0.063152388 0.11500382 0.69800001 4279828737
-0.061734289 0.11483905 0.69700003 4280353025
-0.06040667 0.11483905 0.69700003 4280353025
-0.059079051 0.11483905 0.69700003 4280353029
-0.057751432 0.11483905 0.69700003 4280484105
-0.056423813 0.11483905 0.69700003 4280549637
-0.055096194 0.11483905 0.69700003 4280418562
-0.053768575 0.11483905 0.69700003 4280287490
-0.052440956 0.11483905 0.69700003 4280353025
-0.05118667 0.11500382 0.69800001 4280418565
-0.049785718 0.11483905 0.69700003 4280942857
-0.048527621 0.11500382 0.69800001 4281467141
-0.047198098 0.11500382 0.69800001 4280680705
-0.045868576 0.11500382 0.69800001 4279894273
-0.04466667 0.11533334 0.70000005 4279894273
-0.043333337 0.11533334 0.70000005 4279894273
-0.042000003 0.11533334 0.70000005 4279959809
-0.040724766 0.1154981 0.70100003 4280025345
-0.039389525 0.1154981 0.70100003 4279959809
-0.038162861 0.11582763 0.70300001 4279894273
-0.036823813 0.11582763 0.70300001 4279894273
-0.035535239 0.11599239 0.70400006 4279894273
-0.034340002 0.11648668 0.70700002 4280418562
-0.033133335 0.11698096 0.71000004 4280878082
-0.031825718 0.11714572 0.71100003 4281468674
-0.030471431 0.11714572 0.71100003 4282060290
-0.029240001 0.11764001 0.71400005 4282454274
-0.027958097 0.11796953 0.71600002 4282847234
-0.02663143 0.11813429 0.71700001 4282846978
-0.025336193 0.11846381 0.71900004 4282782977
-0.087720007 0.11900001 0.71400005 4280418563
-0.086360008 0.11900001 0.71400005 4281140741
-0.085000008 0.11900001 0.71400005 4281797637
-0.083522864 0.11883334 0.71300006 4281206532
-0.081934288 0.11850001 0.71100003 4280550659
-0.080466673 0.11833334 0.71000004 4280749058
-0.078780003 0.11783334 0.70700002 4280882690
-0.077214293 0.11750001 0.70500004 4280880642
-0.075763814 0.11733334 0.70400006 4280945410
-0.07431715 0.11716668 0.70300001 4280944641
-0.072978102 0.11716668 0.70300001 4280943361
-0.071435243 0.11683334 0.70100003 4280746497
-0.070100002 0.11683334 0.70100003 4280615169
-0.068666674 0.11666667 0.70000005 4280484353
-0.067333341 0.11666667 0.70000005 4280287490
-0.066000007 0.11666667 0.70000005 4280353282
-0.064481907 0.11633334 0.69800001 4280418818
-0.063152388 0.11633334 0.69800001 4280353025
-0.061822861 0.11633334 0.69800001 4280353025
-0.060493339 0.11633334 0.69800001 4280090881
-0.059163813 0.11633334 0.69800001 4279828738
-0.057751432 0.11616667 0.69700003 4280287491
-0.056423813 0.11616667 0.69700003 4280746243
-0.055096194 0.11616667 0.69700003 4280221954
-0.053768575 0.11616667 0.69700003 4279763202
-0.052440956 0.11616667 0.69700003 4280025345
-0.05118667 0.11633334 0.69800001 4280353025
-0.049785718 0.11616667 0.69700003 4280615169
-0.048527621 0.11633334 0.69800001 4280877313
-0.047198098 0.11633334 0.69800001 4280287489
-0.045868576 0.11633334 0.69800001 4279632129
-0.044539049 0.11633334 0.69800001 4279697665
-0.043209527 0.11633334 0.69800001 4279828737
-0.042000003 0.11666667 0.70000005 4279894529
-0.040724766 0.11683334 0.70100003 4279960065
-0.039389525 0.11683334 0.70100003 4279960065
-0.038162861 0.11716668 0.70300001 4279959809
-0.036876194 0.11733334 0.70400006 4279763201
-0.035585716 0.11750001 0.70500004 4279632129
-0.034388572 0.11800001 0.708 4280222209
-0.033133335 0.11833334 0.71000004 4280812289
-0.031825718 0.11850001 0.71100003 4281403649
-0.030600002 0.11900001 0.71400005 4281996545
-0.029321907 0.11933334 0.71600002 4282323713
-0.027958097 0.11933334 0.71600002 4282651905
-0.02663143 0.11950001 0.71700001 4282651905
-0.025336193 0.11983334 0.71900004 4282717953
-0.087720007 0.12036001 0.71400005 4280418564
-0.086360008 0.12036001 0.71400005 4280811783
-0.085000008 0.12036001 0.71400005 4281140742
-0.083522864 0.12019144 0.71300006 4280682757
-0.081934288 0.11985429 0.71100003 4280159499
-0.080466673 0.11968572 0.71000004 4280423442
-0.078891434 0.11934858 0.708 4280685068
-0.07743334 0.11918001 0.70700002 4280815622
-0.07587143 0.11884286 0.70500004 4280880132
-0.074422859 0.11867429 0.70400006 4280944897
-0.072978102 0.11850572 0.70300001 4280944129
-0.071639054 0.11850572 0.70300001 4280877825
-0.070100002 0.11816858 0.70100003 4280812292
-0.068764769 0.11816858 0.70100003 4280681734
-0.067429528 0.11816858 0.70100003 4280550148
-0.066000007 0.11800001 0.70000005 4281009154
-0.064666674 0.11800001 0.70000005 4281467393
-0.063152388 0.11766286 0.69800001 4280877313
-0.061822861 0.11766286 0.69800001 4280287489
-0.060493339 0.11766286 0.69800001 4279763201
-0.059163813 0.11766286 0.69800001 4279238914
-0.057751432 0.11749429 0.69700003 4280090882
-0.056423813 0.11749429 0.69700003 4280942850
-0.055096194 0.11749429 0.69700003 4280090882
-0.053768575 0.11749429 0.69700003 4279173377
-0.052440956 0.11749429 0.69700003 4279763201
-0.05118667 0.11766286 0.69800001 4280287489
-0.049857147 0.11766286 0.69800001 4280287489
-0.048527621 0.11766286 0.69800001 4280287489
-0.047400955 0.11816858 0.70100003 4279828737
-0.046000004 0.11800001 0.70000005 4279369985
-0.04466667 0.11800001 0.70000005 4279566593
-0.04339524 0.11816858 0.70100003 4279697921
-0.042060003 0.11816858 0.70100003 4279763457
-0.040840954 0.11850572 0.70300001 4279828993
-0.039501909 0.11850572 0.70300001 4279960065
-0.038271431 0.11884286 0.70500004 4280025345
-0.036928575 0.11884286 0.70500004 4279697665
-0.035686668 0.11918001 0.70700002 4279304449
-0.034388572 0.11934858 0.708 4280025345
-0.033133335 0.11968572 0.71000004 4280681217
-0.03191524 0.12019144 0.71300006 4281271809
-0.030600002 0.12036001 0.71400005 4281863681
-0.029321907 0.12069715 0.71600002 4282126337
-0.027997145 0.12086572 0.71700001 4282389251
-0.02663143 0.12086572 0.71700001 4282521349
-0.02537143 0.12137143 0.72000003 4282652163
-0.080466673 0.1210381 0.71000004 4280749858
-0.078891434 0.12069715 0.708 4280880662
-0.07743334 0.12052667 0.70700002 4281077514
-0.07587143 0.12018573 0.70500004 4281273350
-0.074422859 0.12001525 0.70400006 4281142273
-0.072978102 0.11984477 0.70300001 4280944897
-0.071639054 0.11984477 0.70300001 4281009409
-0.070300005 0.11984477 0.70300001 4281074694
-0.068764769 0.11950382 0.70100003 4280877835
-0.067429528 0.11950382 0.70100003 4280680710
-0.066094287 0.11950382 0.70100003 4280877569
-0.064759053 0.11950382 0.70100003 4281139457
-0.06333334 0.11933334 0.70000005 4280746241
-0.061822861 0.11899239 0.69800001 4280353025
-0.060493339 0.11899239 0.69800001 4279959809
-0.059333336 0.11933334 0.70000005 4279632129
-0.058000002 0.11933334 0.70000005 4280156417
-0.056504767 0.11899239 0.69800001 4280680705
-0.055175241 0.11899239 0.69800001 4280090881
-0.053845719 0.11899239 0.69800001 4279566593
-0.052516192 0.11899239 0.69800001 4280156417
-0.051333338 0.11933334 0.70000005 4280811777
-0.050000004 0.11933334 0.70000005 4280549633
-0.048666671 0.11933334 0.70000005 4280353025
-0.047400955 0.11950382 0.70100003 4279959809
-0.046065718 0.11950382 0.70100003 4279632385
-0.044730481 0.11950382 0.70100003 4279763457
-0.04339524 0.11950382 0.70100003 4279894529
-0.042180002 0.11984477 0.70300001 4279960065
-0.040840954 0.11984477 0.70300001 4280025345
-0.039558098 0.12001525 0.70400006 4280221953
-0.038271431 0.12018573 0.70500004 4280484097
-0.036928575 0.12018573 0.70500004 4280090881
-0.035686668 0.12052667 0.70700002 4279697665
-0.034340002 0.12052667 0.70700002 4280221953
-0.033133335 0.1210381 0.71000004 4280811777
-0.03191524 0.12154953 0.71300006 4281403137
-0.030600002 0.12172001 0.71400005 4281994497
-0.029321907 0.12206096 0.71600002 4282256897
-0.027997145 0.12223144 0.71700001 4282519301
-0.026705716 0.12257239 0.71900004 4282651401
-0.079114288 0.12239049 0.71000004 4281010701
-0.077542864 0.12204573 0.708 4281339912
-0.07608667 0.12187334 0.70700002 4281666820
-0.074528575 0.12152858 0.70500004 4281339905
-0.073081911 0.1213562 0.70400006 4280944897
-0.071740955 0.1213562 0.70400006 4281140225
-0.070400007 0.1213562 0.70400006 4281271044
-0.068960957 0.12118382 0.70300001 4281008391
-0.067621909 0.12118382 0.70300001 4280746244
-0.066282861 0.12118382 0.70300001 4280746241
-0.064943813 0.12118382 0.70300001 4280746241
-0.063423812 0.12083905 0.70100003 4280549633
-0.062088575 0.12083905 0.70100003 4280353025
-0.060753338 0.12083905 0.70100003 4280156417
-0.059418101 0.12083905 0.70100003 4279959809
-0.058000002 0.12066668 0.70000005 4280156417
-0.056666672 0.12066668 0.70000005 4280353025
-0.055333339 0.12066668 0.70000005 4280156417
-0.054000005 0.12066668 0.70000005 4279894273
-0.052666672 0.12066668 0.70000005 4280615169
-0.051333338 0.12066668 0.70000005 4281270529
-0.050071433 0.12083905 0.70100003 4280811777
-0.048736192 0.12083905 0.70100003 4280353025
-0.047400955 0.12083905 0.70100003 4280156417
-0.046065718 0.12083905 0.70100003 4279894273
-0.044858098 0.12118382 0.70300001 4279959809
-0.04351905 0.12118382 0.70300001 4280025345
-0.042180002 0.12118382 0.70300001 4280090881
-0.040899049 0.1213562 0.70400006 4280156417
-0.03961429 0.12152858 0.70500004 4280549633
-0.038380001 0.12187334 0.70700002 4280942850
-0.037033334 0.12187334 0.70700002 4280484098
-0.035686668 0.12187334 0.70700002 4280025346
-0.034340002 0.12187334 0.70700002 4280484353
-0.033180002 0.12256286 0.71100003 4280943361
-0.03191524 0.12290762 0.71300006 4281533953
-0.030600002 0.12308001 0.71400005 4282125057
-0.029321907 0.12342477 0.71600002 4282387713
-0.028075241 0.12394191 0.71900004 4282585091
-0.026705716 0.12394191 0.71900004 4282716677
-0.080920003 0.12444001 0.71400005 4280877825
-0.079448573 0.12426572 0.71300006 4280746755
-0.077871434 0.12391715 0.71100003 4280944645
-0.076409526 0.12374286 0.71000004 4281206531
-0.074740008 0.12322001 0.70700002 4280944641
-0.073393337 0.12322001 0.70700002 4280682241
-0.071842864 0.12287144 0.70500004 4280746753
-0.070400007 0.12269715 0.70400006 4280746242
-0.069059052 0.12269715 0.70400006 4280680707
-0.067621909 0.12252287 0.70300001 4280549634
-0.066282861 0.12252287 0.70300001 4280549633
-0.064943813 0.12252287 0.70300001 4280549633
-0.063604765 0.12252287 0.70300001 4280484097
-0.06226572 0.12252287 0.70300001 4280353025
-0.060926672 0.12252287 0.70300001 4280287489
-0.059418101 0.12217429 0.70100003 4280156417
-0.05808286 0.12217429 0.70100003 4280484097
-0.056666672 0.12200001 0.70000005 4280811777
-0.055333339 0.12200001 0.70000005 4280287489
-0.054000005 0.12200001 0.70000005 4279828737
-0.052666672 0.12200001 0.70000005 4280353025
-0.05140667 0.12217429 0.70100003 4280877313
-0.050071433 0.12217429 0.70100003 4280680705
-0.048736192 0.12217429 0.70100003 4280484097
-0.047536194 0.12252287 0.70300001 4280221953
-0.046197146 0.12252287 0.70300001 4279959809
-0.044858098 0.12252287 0.70300001 4280090881
-0.04351905 0.12252287 0.70300001 4280221953
-0.042240001 0.12269715 0.70400006 4280025345
-0.040957145 0.12287144 0.70500004 4279828737
-0.039726671 0.12322001 0.70700002 4280156417
-0.038380001 0.12322001 0.70700002 4280484098
-0.037085716 0.1233943 0.708 4280353027
-0.035737146 0.1233943 0.708 4280156418
-0.034388572 0.1233943 0.708 4280615425
-0.033180002 0.12391715 0.71100003 4281008641
-0.031960003 0.12444001 0.71400005 4281599489
-0.030685715 0.12478858 0.71600002 4282255873
-0.029321907 0.12478858 0.71600002 4282519553
-0.028075241 0.12531143 0.71900004 4282847489
-0.026705716 0.12531143 0.71900004 4282912513
-0.080920003 0.12580001 0.71400005 4280680961
-0.079782866 0.1261524 0.71600002 4280419074
-0.077871434 0.12527144 0.71100003 4280615939
-0.07651715 0.12527144 0.71100003 4280747010
-0.074845716 0.12474287 0.708 4280615425
-0.073497146 0.12474287 0.708 4280419073
-0.072046675 0.12456667 0.70700002 4280353025
-0.070500001 0.12421429 0.70500004 4280221954
-0.069157146 0.12421429 0.70500004 4280287491
-0.067718096 0.1240381 0.70400006 4280353026
-0.066377148 0.1240381 0.70400006 4280353025
-0.064943813 0.12386192 0.70300001 4280353025
-0.063695244 0.1240381 0.70400006 4280353025
-0.06226572 0.12386192 0.70300001 4280353025
-0.060926672 0.12386192 0.70300001 4280353025
-0.059587624 0.12386192 0.70300001 4280353026
-0.05808286 0.12350953 0.70100003 4280811778
-0.056747623 0.12350953 0.70100003 4281270530
-0.055412386 0.12350953 0.70100003 4280484097
-0.054077145 0.12350953 0.70100003 4279697665
-0.052741908 0.12350953 0.70100003 4280090881
-0.05140667 0.12350953 0.70100003 4280418561
-0.050071433 0.12350953 0.70100003 4280484097
-0.048875242 0.12386192 0.70300001 4280549634
-0.047536194 0.12386192 0.70300001 4280287490
-0.046197146 0.12386192 0.70300001 4279959810
-0.044858098 0.12386192 0.70300001 4280221953
-0.043580957 0.1240381 0.70400006 4280418562
-0.042300005 0.12421429 0.70500004 4279959810
-0.040957145 0.12421429 0.70500004 4279501058
-0.039726671 0.12456667 0.70700002 4279763457
-0.038380001 0.12456667 0.70700002 4280025346
-0.037085716 0.12474287 0.708 4280156418
-0.035737146 0.12474287 0.708 4280287490
-0.034388572 0.12474287 0.708 4280680961
-0.033273336 0.12562382 0.71300006 4281074433
-0.032049526 0.1261524 0.71600002 4281730305
-0.030728573 0.12632857 0.71700001 4282322177
-0.029362859 0.12632857 0.71700001 4282718209
-0.028114287 0.12685715 0.72000003 4283109889
-0.026705716 0.12668096 0.71900004 4283109377
-0.081260003 0.12769429 0.71700001 4280353281
-0.079894289 0.12769429 0.71700001 4280025601
-0.078200005 0.12716001 0.71400005 4280222209
-0.07673239 0.12698191 0.71300006 4280484097
-0.075162865 0.12662572 0.71100003 4280418561
-0.073704764 0.12644763 0.71000004 4280418561
-0.072148576 0.12609144 0.708 4280287489
-0.070700005 0.12591334 0.70700002 4280221954
-0.069353335 0.12591334 0.70700002 4280156418
-0.067814291 0.12555715 0.70500004 4280090882
-0.066377148 0.12537906 0.70400006 4280090881
-0.065036193 0.12537906 0.70400006 4280090881
-0.063695244 0.12537906 0.70400006 4280221953
-0.062354289 0.12537906 0.70400006 4280353025
-0.060926672 0.12520096 0.70300001 4280353025
-0.059587624 0.12520096 0.70300001 4280353026
-0.058248576 0.12520096 0.70300001 4280615171
-0.056909528 0.12520096 0.70300001 4280811778
-0.055570479 0.12520096 0.70300001 4280418561
-0.054231431 0.12520096 0.70300001 4280025345
-0.052892383 0.12520096 0.70300001 4280156417
-0.051553335 0.12520096 0.70300001 4280353025
-0.050214291 0.12520096 0.70300001 4280287489
-0.048875242 0.12520096 0.70300001 4280221954
-0.047536194 0.12520096 0.70300001 4280090883
-0.046197146 0.12520096 0.70300001 4279959810
-0.044921909 0.12537906 0.70400006 4280025345
-0.04364286 0.12555715 0.70500004 4280156418
-0.042420004 0.12591334 0.70700002 4279959811
-0.041073337 0.12591334 0.70700002 4279697666
-0.039726671 0.12591334 0.70700002 4279959809
-0.038434289 0.12609144 0.708 4280156417
-0.037190478 0.12644763 0.71000004 4280221953
-0.035737146 0.12609144 0.708 4280287489
-0.034485716 0.12644763 0.71000004 4280680961
-0.033413336 0.1275162 0.71600002 4281008897
-0.032183811 0.12805049 0.71900004 4281599489
-0.030814288 0.12805049 0.71900004 4282256385
-0.029444763 0.12805049 0.71900004 4282716161
-0.028114287 0.12822857 0.72000003 4283174401
-0.026742859 0.12822857 0.72000003 4283109121
-0.081260003 0.12906002 0.71700001 4280090881
-0.079894289 0.12906002 0.71700001 4279566849
-0.078200005 0.12852001 0.71400005 4279894273
-0.07673239 0.12834001 0.71300006 4280156417
-0.07537429 0.12834001 0.71300006 4280287489
-0.073808573 0.12798001 0.71100003 4280353025
-0.072352387 0.1278 0.71000004 4280287489
-0.070800006 0.12744001 0.708 4280156417
-0.069353335 0.12726001 0.70700002 4280025346
-0.068006672 0.12726001 0.70700002 4279828737
-0.066471435 0.1269 0.70500004 4279828737
-0.065036193 0.12672001 0.70400006 4279828737
-0.063695244 0.12672001 0.70400006 4280090881
-0.062354289 0.12672001 0.70400006 4280287489
-0.061013337 0.12672001 0.70400006 4280353025
-0.059672385 0.12672001 0.70400006 4280353026
-0.058248576 0.12654001 0.70300001 4280353026
-0.056909528 0.12654001 0.70300001 4280353026
-0.055570479 0.12654001 0.70300001 4280353025
-0.054231431 0.12654001 0.70300001 4280287489
-0.052892383 0.12654001 0.70300001 4280287489
-0.051553335 0.12654001 0.70300001 4280287489
-0.050214291 0.12654001 0.70300001 4280090881
-0.048875242 0.12654001 0.70300001 4279828738
-0.047603812 0.12672001 0.70400006 4279894274
-0.04626286 0.12672001 0.70400006 4279894274
-0.044985719 0.1269 0.70500004 4279894273
-0.04376667 0.12726001 0.70700002 4279894274
-0.042420004 0.12726001 0.70700002 4279894274
-0.041131433 0.12744001 0.708 4279894274
-0.039782859 0.12744001 0.708 4280090881
-0.038434289 0.12744001 0.708 4280287489
-0.037190478 0.1278 0.71000004 4280287489
-0.035838097 0.1278 0.71000004 4280287489
-0.034534287 0.12798001 0.71100003 4280615169
-0.033460002 0.12906002 0.71700001 4280943105
-0.032183811 0.12942001 0.71900004 4281533185
-0.030814288 0.12942001 0.71900004 4282125057
-0.029485716 0.1296 0.72000003 4282715649
-0.028114287 0.1296 0.72000003 4283239938
-0.026742859 0.1296 0.72000003 4283109379
-0.082856193 0.13078953 0.71900004 4280616193
-0.081486672 0.13078953 0.71900004 4280354049
-0.079894289 0.13042572 0.71700001 4280091393
-0.078419052 0.13024382 0.71600002 4280288257
-0.076840006 0.12988001 0.71400005 4280484097
-0.07537429 0.1296981 0.71300006 4280680705
-0.074016199 0.1296981 0.71300006 4280942849
-0.072454289 0.1293343 0.71100003 4280615169
-0.070800006 0.12878858 0.708 4280287489
-0.069451436 0.12878858 0.708 4279894273
-0.068006672 0.12860668 0.70700002 4279501057
-0.066660002 0.12860668 0.70700002 4279566593
-0.065128572 0.12824287 0.70500004 4279697665
-0.063785717 0.12824287 0.70500004 4279894273
-0.062354289 0.12806097 0.70400006 4280090881
-0.061013337 0.12806097 0.70400006 4280353025
-0.059672385 0.12806097 0.70400006 4280680705
-0.058331434 0.12806097 0.70400006 4280484097
-0.056990478 0.12806097 0.70400006 4280353025
-0.055649526 0.12806097 0.70400006 4280353025
-0.054308575 0.12806097 0.70400006 4280353025
-0.052967623 0.12806097 0.70400006 4280353025
-0.051626671 0.12806097 0.70400006 4280353025
-0.050285719 0.12806097 0.70400006 4280090881
-0.048944764 0.12806097 0.70400006 4279894273
-0.047603812 0.12806097 0.70400006 4279763201
-0.046328574 0.12824287 0.70500004 4279632129
-0.045113336 0.12860668 0.70700002 4279632129
-0.04376667 0.12860668 0.70700002 4279632129
-0.042480003 0.12878858 0.708 4279632129
-0.041131433 0.12878858 0.708 4279697665
-0.039782859 0.12878858 0.708 4279959809
-0.038542859 0.12915239 0.71000004 4280287489
-0.037347622 0.1296981 0.71300006 4280221953
-0.036040001 0.12988001 0.71400005 4280156417
-0.034680001 0.12988001 0.71400005 4280484097
-0.033460002 0.13042572 0.71700001 4280877313
-0.032183811 0.13078953 0.71900004 4281468417
-0.030857146 0.13097143 0.72000003 4282060033
-0.029485716 0.13097143 0.72000003 4282453249
-0.028192382 0.13133524 0.72200006 4282845699
-0.026854288 0.13151716 0.72300005 4282715653
-0.025477145 0.13151716 0.72300005 4282650127
-0.024400001 0.13315429 0.73200005 4282716184
-0.023005717 0.13315429 0.73200005 4282716429
-0.02161143 0.13315429 0.73200005 4282781953
-0.08434286 0.13234286 0.72000003 4280353538
-0.082856193 0.13215905 0.71900004 4280682507
-0.081486672 0.13215905 0.71900004 4280618003
-0.079894289 0.13179144 0.71700001 4280552459
-0.078419052 0.13160762 0.71600002 4280682754
-0.076840006 0.13124001 0.71400005 4280747524
-0.075480007 0.13124001 0.71400005 4281139717
-0.074016199 0.1310562 0.71300006 4281533699
-0.072454289 0.13068858 0.71100003 4280943105
-0.071100004 0.13068858 0.71100003 4280353281
-0.069647625 0.13050477 0.71000004 4279763201
-0.068102859 0.13013715 0.708 4279107841
-0.066754289 0.13013715 0.708 4279304449
-0.065313339 0.12995334 0.70700002 4279501057
-0.063966669 0.12995334 0.70700002 4279697666
-0.062442861 0.12958573 0.70500004 4279894273
-0.061100002 0.12958573 0.70500004 4280418561
-0.059757147 0.12958573 0.70500004 4280942849
-0.058414288 0.12958573 0.70500004 4280680705
-0.057071432 0.12958573 0.70500004 4280353025
-0.055728573 0.12958573 0.70500004 4280418561
-0.054385718 0.12958573 0.70500004 4280418561
-0.052967623 0.12940191 0.70400006 4280418562
-0.051626671 0.12940191 0.70400006 4280418561
-0.050500002 0.12995334 0.70700002 4280156417
-0.048944764 0.12940191 0.70400006 4279894273
-0.047671434 0.12958573 0.70500004 4279632129
-0.046460003 0.12995334 0.70700002 4279369985
-0.045113336 0.12995334 0.70700002 4279369985
-0.043828573 0.13013715 0.708 4279304449
-0.042480003 0.13013715 0.708 4279435521
-0.041131433 0.13013715 0.708 4279501057
-0.039782859 0.13013715 0.708 4279894273
-0.038542859 0.13050477 0.71000004 4280221953
-0.03724286 0.13068858 0.71100003 4280090881
-0.035888575 0.13068858 0.71100003 4279959809
-0.034680001 0.13124001 0.71400005 4280418561
-0.033553336 0.13215905 0.71900004 4280812033
-0.032183811 0.13215905 0.71900004 4281402625
-0.030857146 0.13234286 0.72000003 4281993985
-0.029485716 0.13234286 0.72000003 4282191361
-0.028231431 0.13289429 0.72300005 4282387715
-0.026854288 0.13289429 0.72300005 4282387972
-0.025759049 0.13436477 0.73100001 4282322953
-0.024400001 0.13454857 0.73200005 4282257678
-0.023068573 0.1349162 0.73400003 4282191879
-0.085714288 0.13371429 0.72000003 4280419330
-0.08434286 0.13371429 0.72000003 4280682499
-0.082971431 0.13371429 0.72000003 4281011220
-0.081486672 0.13352858 0.71900004 4280684325
-0.080117151 0.13352858 0.71900004 4280424212
-0.078528576 0.13315715 0.71700001 4280617731
-0.077055246 0.13297144 0.71600002 4280814342
-0.075480007 0.13260001 0.71400005 4281076489
-0.074016199 0.1324143 0.71300006 4281339141
-0.072658099 0.1324143 0.71300006 4280813313
-0.071100004 0.13204287 0.71100003 4280353537
-0.069647625 0.13185716 0.71000004 4279894529
-0.068102859 0.13148572 0.708 4279501057
-0.066754289 0.13148572 0.708 4279435521
-0.065313339 0.1313 0.70700002 4279435522
-0.063966669 0.1313 0.70700002 4279632130
-0.062620007 0.1313 0.70700002 4279894274
-0.061100002 0.13092858 0.70500004 4280025345
-0.059757147 0.13092858 0.70500004 4280156417
-0.058414288 0.13092858 0.70500004 4280221953
-0.057071432 0.13092858 0.70500004 4280287489
-0.055728573 0.13092858 0.70500004 4280221953
-0.054385718 0.13092858 0.70500004 4280156418
-0.053042859 0.13092858 0.70500004 4279959810
-0.051700003 0.13092858 0.70500004 4279763202
-0.050500002 0.1313 0.70700002 4279828737
-0.049153335 0.1313 0.70700002 4279894273
-0.047806669 0.1313 0.70700002 4279763201
-0.046460003 0.1313 0.70700002 4279632129
-0.045113336 0.1313 0.70700002 4279501057
-0.043828573 0.13148572 0.708 4279435521
-0.042480003 0.13148572 0.708 4279435521
-0.041131433 0.13148572 0.708 4279435521
-0.03989524 0.13185716 0.71000004 4279959809
-0.038597144 0.13204287 0.71100003 4280484097
-0.03724286 0.13204287 0.71100003 4280287489
-0.036040001 0.13260001 0.71400005 4280090881
-0.034680001 0.13260001 0.71400005 4280418561
-0.033553336 0.13352858 0.71900004 4280680705
-0.032228574 0.13371429 0.72000003 4281206273
-0.030942859 0.13408573 0.72200006 4281732097
-0.029608574 0.13427144 0.72300005 4281994497
-0.028309526 0.13464287 0.72500002 4282256386
-0.02715143 0.13575715 0.73100001 4282191363
-0.025759049 0.13575715 0.73100001 4282061059
-0.024400001 0.13594286 0.73200005 4282126083
-0.023005717 0.13594286 0.73200005 4282125314
-0.085714288 0.13508572 0.72000003 4280879365
-0.08434286 0.13508572 0.72000003 4281077251
-0.082971431 0.13508572 0.72000003 4281274635
-0.081600003 0.13508572 0.72000003 4280814868
-0.080117151 0.13489811 0.71900004 4280290318
-0.078747623 0.13489811 0.71900004 4280615432
-0.077055246 0.13433525 0.71600002 4280879889
-0.075480007 0.13396001 0.71400005 4281012505
-0.074120007 0.13396001 0.71400005 4281078286
-0.072658099 0.13377239 0.71300006 4280748804
-0.071100004 0.13339715 0.71100003 4280353794
-0.069745719 0.13339715 0.71100003 4280090881
-0.06829524 0.13320953 0.71000004 4279828737
-0.066942863 0.13320953 0.71000004 4279632129
-0.065405719 0.1328343 0.708 4279369985
-0.063966669 0.13264668 0.70700002 4279632130
-0.062620007 0.13264668 0.70700002 4279828737
-0.061273336 0.13264668 0.70700002 4279566593
-0.05992667 0.13264668 0.70700002 4279304449
-0.058580004 0.13264668 0.70700002 4279763201
-0.057233337 0.13264668 0.70700002 4280156417
-0.055886671 0.13264668 0.70700002 4280025345
-0.054540005 0.13264668 0.70700002 4279894273
-0.053193338 0.13264668 0.70700002 4279501058
-0.051846672 0.13264668 0.70700002 4279107842
-0.050500002 0.13264668 0.70700002 4279501059
-0.049153335 0.13264668 0.70700002 4279894274
-0.047806669 0.13264668 0.70700002 4279894273
-0.046525717 0.1328343 0.708 4279828737
-0.045304764 0.13320953 0.71000004 4279697665
-0.043952383 0.13320953 0.71000004 4279566849
-0.042660002 0.13339715 0.71100003 4279435777
-0.041421909 0.13377239 0.71300006 4279304449
-0.040063813 0.13377239 0.71300006 4280025345
-0.038705718 0.13377239 0.71300006 4280746241
-0.037400004 0.13396001 0.71400005 4280484097
-0.036140956 0.13433525 0.71600002 4280222209
-0.034825716 0.13452287 0.71700001 4280418561
-0.033553336 0.13489811 0.71900004 4280549889
-0.032318097 0.13546096 0.72200006 4281009153
-0.030985717 0.13564858 0.72300005 4281469441
-0.029608574 0.13564858 0.72300005 4281797889
-0.028309526 0.13602382 0.72500002 4282125570
-0.026965717 0.13621144 0.72600001 4281994498
-0.025794288 0.13733715 0.73200005 4281798402
-0.024400001 0.13733715 0.73200005 4281929218
-0.023005717 0.13733715 0.73200005 4282059778
-0.08434286 0.13645715 0.72000003 4281079043
-0.082971431 0.13645715 0.72000003 4281080579
-0.081600003 0.13645715 0.72000003 4280618242
-0.080228575 0.13645715 0.72000003 4280092936
-0.078747623 0.13626763 0.71900004 4280813837
-0.077162862 0.13588858 0.71700001 4281601051
-0.075691432 0.13569906 0.71600002 4281275177
-0.074120007 0.13532001 0.71400005 4280950296
-0.072760008 0.13532001 0.71400005 4280290054
-0.071300007 0.13513048 0.71300006 4279697668
-0.069745719 0.13475144 0.71100003 4279763201
-0.068391435 0.13475144 0.71100003 4279828737
-0.066942863 0.13456191 0.71000004 4279697665
-0.065405719 0.13418287 0.708 4279632129
-0.064057149 0.13418287 0.708 4279828737
-0.062620007 0.13399334 0.70700002 4280090881
-0.061273336 0.13399334 0.70700002 4279959809
-0.05992667 0.13399334 0.70700002 4279828737
-0.058580004 0.13399334 0.70700002 4280025345
-0.057233337 0.13399334 0.70700002 4280221953
-0.055886671 0.13399334 0.70700002 4280156417
-0.054540005 0.13399334 0.70700002 4280156417
-0.053193338 0.13399334 0.70700002 4279959809
-0.051920004 0.13418287 0.708 4279763203
-0.05057143 0.13418287 0.708 4279959812
-0.04922286 0.13418287 0.708 4280156675
-0.04787429 0.13418287 0.708 4280025345
-0.046657145 0.13456191 0.71000004 4279959809
-0.045304764 0.13456191 0.71000004 4279763201
-0.04401429 0.13475144 0.71100003 4279566849
-0.042780004 0.13513048 0.71300006 4279239169
-0.041421909 0.13513048 0.71300006 4278976769
-0.040063813 0.13513048 0.71300006 4279763201
-0.038760003 0.13532001 0.71400005 4280549633
-0.037400004 0.13532001 0.71400005 4280353281
-0.036140956 0.13569906 0.71600002 4280222465
-0.034922861 0.13626763 0.71900004 4280091137
-0.033600003 0.13645715 0.72000003 4279960321
-0.03236286 0.13702573 0.72300005 4280682241
-0.03107143 0.13740477 0.72500002 4281469953
-0.02973143 0.1375943 0.72600001 4282060033
-0.028348573 0.1375943 0.72600001 4282650369
-0.027040001 0.13797334 0.72800004 4282126337
-0.025794288 0.13873143 0.73200005 4281601537
-0.024466669 0.13911049 0.73400003 4281863681
-0.023005717 0.13873143 0.73200005 4282125825
-0.08434286 0.13782857 0.72000003 4281080324
-0.082971431 0.13782857 0.72000003 4280881411
-0.081600003 0.13782857 0.72000003 4280418818
-0.080228575 0.13782857 0.72000003 4279895814
-0.078747623 0.13763715 0.71900004 4281077259
-0.077162862 0.1372543 0.71700001 4282257172
-0.075797148 0.1372543 0.71700001 4281537053
-0.074327625 0.13706286 0.71600002 4280814864
-0.072760008 0.13668001 0.71400005 4279894276
-0.071300007 0.13648859 0.71300006 4278976771
-0.069941908 0.13648859 0.71300006 4279435521
-0.068391435 0.13610572 0.71100003 4279828737
-0.06703715 0.13610572 0.71100003 4279828737
-0.065682858 0.13610572 0.71100003 4279828737
