# .PCD v0.7 - Point Cloud Data file format
VERSION 0.7
FIELDS x y z rgba
SIZE 4 4 4 4
TYPE F F F U
COUNT 1 1 1 1
WIDTH 1047
HEIGHT 1
VIEWPOINT 0 0 0 1 0 0 0
POINTS 1047
DATA ascii
0.048546668 0.035937145 0.66200006 4280156417
0.049807623 0.035937145 0.66200006 4279828737
0.050991431 0.03588286 0.66100001 4279632129
0.052171431 0.035828575 0.66000003 4279369985
0.053428575 0.035828575 0.66000003 4279632129
0.054685719 0.035828575 0.66000003 4279894273
0.05594286 0.035828575 0.66000003 4279632129
0.057200003 0.035828575 0.66000003 4279369985
0.058280002 0.035720002 0.65800005 4279173377
0.059533339 0.035720002 0.65800005 4278976769
0.060786672 0.035720002 0.65800005 4278976769
0.062040005 0.035720002 0.65800005 4278976769
0.063293338 0.035720002 0.65800005 4278911233
0.064546674 0.035720002 0.65800005 4278845697
0.066000007 0.035828575 0.66000003 4278911233
0.067257144 0.035828575 0.66000003 4278911233
0.068514287 0.035828575 0.66000003 4278714625
0.069771431 0.035828575 0.66000003 4278518017
0.071028575 0.035828575 0.66000003 4278714625
0.072285719 0.035828575 0.66000003 4278911233
0.073542863 0.035828575 0.66000003 4278780162
0.074913338 0.03588286 0.66100001 4278649095
0.076287627 0.035937145 0.66200006 4279304461
0.077665716 0.03599143 0.66300005 4279894539
0.078928575 0.03599143 0.66300005 4280025610
0.080433339 0.036100004 0.66500002 4280156678
0.081700005 0.036100004 0.66500002 4279238913
0.08309143 0.036154289 0.66600001 4278321409
0.084486671 0.036208574 0.66700006 4278321409
0.086014293 0.036317144 0.66900003 4278255873
0.08754953 0.036425717 0.671 4278256129
0.088960007 0.036480002 0.67200005 4278255873
0.090642862 0.036642861 0.67500001 4278255873
0.091928579 0.036642861 0.67500001 4278255873
0.093214288 0.036642861 0.67500001 4278255873
0.030393336 0.038153335 0.67900002 4278583554
0.031686667 0.038153335 0.67900002 4278780162
0.032980002 0.038153335 0.67900002 4279042306
0.03422286 0.038097147 0.67800003 4278845697
0.035357144 0.037928574 0.67500001 4278714625
0.036588576 0.037872385 0.67400002 4278714625
0.037760001 0.037760001 0.67200005 4278780161
0.038923811 0.03764762 0.67000002 4278845697
0.040140003 0.037591431 0.66900003 4278911234
0.041290481 0.03747905 0.66700006 4278976771
0.042497147 0.037422858 0.66600001 4278976771
0.043700002 0.03736667 0.66500002 4279042307
0.044966668 0.03736667 0.66500002 4279173378
0.046094287 0.037254289 0.66300005 4279632129
0.047357146 0.037254289 0.66300005 4280156417
0.048546668 0.037198097 0.66200006 4279894273
0.049807623 0.037198097 0.66200006 4279697665
0.050991431 0.037141908 0.66100001 4279501057
0.052171431 0.037085716 0.66000003 4279369985
0.053428575 0.037085716 0.66000003 4279501057
0.054685719 0.037085716 0.66000003 4279632129
0.05594286 0.037085716 0.66000003 4279369985
0.057200003 0.037085716 0.66000003 4279173377
0.058280002 0.036973335 0.65800005 4279042305
0.059533339 0.036973335 0.65800005 4278976769
0.060786672 0.036973335 0.65800005 4278976769
0.062040005 0.036973335 0.65800005 4278976769
0.063293338 0.036973335 0.65800005 4278976769
0.064546674 0.036973335 0.65800005 4278911233
0.065800004 0.036973335 0.65800005 4279238913
0.067257144 0.037085716 0.66000003 4279501057
0.068514287 0.037085716 0.66000003 4279107841
0.069771431 0.037085716 0.66000003 4278649089
0.071028575 0.037085716 0.66000003 4278911233
0.072285719 0.037085716 0.66000003 4279173378
0.073542863 0.037085716 0.66000003 4279502082
0.074913338 0.037141908 0.66100001 4279894541
0.076287627 0.037198097 0.66200006 4279829015
0.077665716 0.037254289 0.66300005 4279763988
0.078928575 0.037254289 0.66300005 4279632401
0.080433339 0.03736667 0.66500002 4279566601
0.081822865 0.037422858 0.66600001 4278976769
0.08309143 0.037422858 0.66600001 4278321409
0.084740005 0.037591431 0.66900003 4278321409
0.086271435 0.037703812 0.671 4278321409
0.087680005 0.037760001 0.67200005 4278255873
0.089224771 0.037872385 0.67400002 4278255873
0.090642862 0.037928574 0.67500001 4278255873
0.091928579 0.037928574 0.67500001 4278255873
0.093352385 0.037984766 0.67600006 4278255873
0.094920009 0.038097147 0.67800003 4278255873
0.030393336 0.039446671 0.67900002 4278518017
0.031546667 0.039272383 0.67600006 4278845698
0.032834288 0.039272383 0.67600006 4279173377
0.034121908 0.039272383 0.67600006 4278845697
0.035357144 0.039214287 0.67500001 4278518017
0.036588576 0.039156195 0.67400002 4278583554
0.037760001 0.039040003 0.67200005 4278583553
0.038923811 0.038923811 0.67000002 4278714625
0.040140003 0.038865715 0.66900003 4278845698
0.041290481 0.038749527 0.66700006 4278911234
0.042497147 0.038691431 0.66600001 4278976770
0.043700002 0.038633335 0.66500002 4279173378
0.044966668 0.038633335 0.66500002 4279304450
0.046094287 0.038517144 0.66300005 4279566593
0.047357146 0.038517144 0.66300005 4279828737
0.048546668 0.038459051 0.66200006 4279697665
0.049807623 0.038459051 0.66200006 4279501057
0.050991431 0.038400955 0.66100001 4279435521
0.052250478 0.038400955 0.66100001 4279304449
0.053428575 0.03834286 0.66000003 4279304449
0.054685719 0.03834286 0.66000003 4279304450
0.05594286 0.03834286 0.66000003 4279107842
0.057200003 0.03834286 0.66000003 4278911234
0.058457147 0.03834286 0.66000003 4278976769
0.059533339 0.038226668 0.65800005 4278976769
0.060786672 0.038226668 0.65800005 4278976769
0.062040005 0.038226668 0.65800005 4278976769
0.063293338 0.038226668 0.65800005 4278976769
0.064546674 0.038226668 0.65800005 4278976769
0.065800004 0.038226668 0.65800005 4279566593
0.067257144 0.03834286 0.66000003 4280090881
0.068514287 0.03834286 0.66000003 4279435521
0.069771431 0.03834286 0.66000003 4278780161
0.071028575 0.03834286 0.66000003 4279107841
0.072285719 0.03834286 0.66000003 4279371010
0.073654294 0.038400955 0.66100001 4280225282
0.075026669 0.038459051 0.66200006 4281075210
0.076287627 0.038459051 0.66200006 4280353298
0.077665716 0.038517144 0.66300005 4279566861
0.079166673 0.038633335 0.66500002 4279304457
0.080433339 0.038633335 0.66500002 4278976773
0.081822865 0.038691431 0.66600001 4278649089
0.083216198 0.038749527 0.66700006 4278321409
0.084866673 0.038923811 0.67000002 4278321409
0.086271435 0.038981907 0.671 4278321409
0.087680005 0.039040003 0.67200005 4278321409
0.089224771 0.039156195 0.67400002 4278255873
0.090642862 0.039214287 0.67500001 4278255873
0.092064768 0.039272383 0.67600006 4278255873
0.093352385 0.039272383 0.67600006 4278255873
0.095060006 0.039446671 0.67900002 4278255873
0.031546667 0.040560003 0.67600006 4278714625
0.032834288 0.040560003 0.67600006 4278845697
0.034071431 0.040500004 0.67500001 4278583553
0.035357144 0.040500004 0.67500001 4278386946
0.036588576 0.040440004 0.67400002 4278518018
0.037872385 0.040440004 0.67400002 4278649090
0.038923811 0.040200002 0.67000002 4278714625
0.040140003 0.040140003 0.66900003 4278845697
0.041290481 0.040020004 0.66700006 4278911233
0.042497147 0.039960004 0.66600001 4278976769
0.043700002 0.039900001 0.66500002 4279173377
0.044966668 0.039900001 0.66500002 4279369985
0.046094287 0.039780002 0.66300005 4279632129
0.047357146 0.039780002 0.66300005 4279894273
0.048620004 0.039780002 0.66300005 4279763201
0.049807623 0.039720003 0.66200006 4279697665
0.050991431 0.039660003 0.66100001 4279828737
0.052250478 0.039660003 0.66100001 4279959809
0.053428575 0.039600004 0.66000003 4279632129
0.054685719 0.039600004 0.66000003 4279369986
0.05594286 0.039600004 0.66000003 4279042307
0.057200003 0.039600004 0.66000003 4278714626
0.058457147 0.039600004 0.66000003 4278845697
0.059714291 0.039600004 0.66000003 4278976769
0.060971431 0.039600004 0.66000003 4279238913
0.062040005 0.039480001 0.65800005 4279501057
0.063485719 0.039600004 0.66000003 4279238913
0.064546674 0.039480001 0.65800005 4278976769
0.066000007 0.039600004 0.66000003 4279107841
0.067257144 0.039600004 0.66000003 4279238913
0.068514287 0.039600004 0.66000003 4279042305
0.069771431 0.039600004 0.66000003 4278845697
0.071136191 0.039660003 0.66100001 4279107841
0.072285719 0.039600004 0.66000003 4279370242
0.073654294 0.039660003 0.66100001 4279764482
0.075026669 0.039720003 0.66200006 4280222727
0.076287627 0.039720003 0.66200006 4279566860
0.077665716 0.039780002 0.66300005 4278976775
0.078928575 0.039780002 0.66300005 4278911233
0.080433339 0.039900001 0.66500002 4278845697
0.081822865 0.039960004 0.66600001 4278583553
0.083216198 0.040020004 0.66700006 4278321409
0.084866673 0.040200002 0.67000002 4278321409
0.086271435 0.040260002 0.671 4278321409
0.087680005 0.040320002 0.67200005 4278255873
0.088960007 0.040320002 0.67200005 4278255873
0.090642862 0.040500004 0.67500001 4278255873
0.092064768 0.040560003 0.67600006 4278255873
0.093352385 0.040560003 0.67600006 4278255873
0.095060006 0.040740002 0.67900002 4278255873
0.03025905 0.04184762 0.67600006 4278649089
0.031500001 0.041785717 0.67500001 4278583553
0.032834288 0.04184762 0.67600006 4278452481
0.034071431 0.041785717 0.67500001 4278386945
0.035357144 0.041785717 0.67500001 4278255873
0.036588576 0.041723814 0.67400002 4278452482
0.037872385 0.041723814 0.67400002 4278649089
0.038981907 0.041538097 0.671 4278780161
0.040200002 0.041476194 0.67000002 4278845697
0.041414287 0.041414287 0.66900003 4278911233
0.042497147 0.041228574 0.66600001 4278911233
0.043700002 0.041166671 0.66500002 4279173377
0.044966668 0.041166671 0.66500002 4279369985
0.046233337 0.041166671 0.66500002 4279632129
0.047357146 0.041042861 0.66300005 4279894273
0.048620004 0.041042861 0.66300005 4279894273
0.049882859 0.041042861 0.66300005 4279894273
0.051068574 0.040980954 0.66200006 4280221953
0.052250478 0.040919051 0.66100001 4280549633
0.053509526 0.040919051 0.66100001 4279959809
0.054685719 0.040857144 0.66000003 4279369986
0.05594286 0.040857144 0.66000003 4278976770
0.057200003 0.040857144 0.66000003 4278518018
0.058457147 0.040857144 0.66000003 4278714625
0.059714291 0.040857144 0.66000003 4278911233
0.060971431 0.040857144 0.66000003 4279501057
0.062040005 0.040733337 0.65800005 4280025345
0.063485719 0.040857144 0.66000003 4279501057
0.064742863 0.040857144 0.66000003 4278976769
0.066000007 0.040857144 0.66000003 4278649089
0.067257144 0.040857144 0.66000003 4278321409
0.068514287 0.040857144 0.66000003 4278649089
0.069771431 0.040857144 0.66000003 4278911233
0.071136191 0.040919051 0.66100001 4279107841
0.072395243 0.040919051 0.66100001 4279304705
0.073654294 0.040919051 0.66100001 4279370498
0.075026669 0.040980954 0.66200006 4279370244
0.076287627 0.040980954 0.66200006 4278845703
0.077665716 0.041042861 0.66300005 4278321412
0.078928575 0.041042861 0.66300005 4278518017
0.080554292 0.041228574 0.66600001 4278649089
0.081945717 0.041290481 0.66700006 4278452481
0.083465718 0.041414287 0.66900003 4278255873
0.084866673 0.041476194 0.67000002 4278255873
0.086271435 0.041538097 0.671 4278255873
0.087680005 0.041600004 0.67200005 4278255873
0.089224771 0.041723814 0.67400002 4278255873
0.090642862 0.041785717 0.67500001 4278255873
0.091928579 0.041785717 0.67500001 4278255873
0.093352385 0.04184762 0.67600006 4278255873
0.094640009 0.04184762 0.67600006 4278255873
0.03025905 0.043135241 0.67600006 4278976769
0.031500001 0.04307143 0.67500001 4278845697
0.032785717 0.04307143 0.67500001 4278714625
0.034071431 0.04307143 0.67500001 4278583553
0.035357144 0.04307143 0.67500001 4278452481
0.036642861 0.04307143 0.67500001 4278714625
0.037872385 0.043007623 0.67400002 4278911233
0.038981907 0.042816192 0.671 4278911233
0.040200002 0.042752385 0.67000002 4278845697
0.041414287 0.042688575 0.66900003 4278911233
0.042560954 0.042560954 0.66700006 4278976769
0.043765716 0.042497147 0.66600001 4279107841
0.044966668 0.042433336 0.66500002 4279239169
0.046233337 0.042433336 0.66500002 4279435521
0.047357146 0.042305715 0.66300005 4279632129
0.048620004 0.042305715 0.66300005 4279632129
0.049882859 0.042305715 0.66300005 4279632129
0.051068574 0.042241909 0.66200006 4279697665
0.052250478 0.042178098 0.66100001 4279763201
0.053509526 0.042178098 0.66100001 4279566593
0.054685719 0.042114288 0.66000003 4279369985
0.05594286 0.042114288 0.66000003 4279238913
0.057200003 0.042114288 0.66000003 4279107841
0.058457147 0.042114288 0.66000003 4279042305
0.059714291 0.042114288 0.66000003 4278976769
0.060971431 0.042114288 0.66000003 4279304449
0.062040005 0.04198667 0.65800005 4279697665
0.063485719 0.042114288 0.66000003 4279435521
0.064742863 0.042114288 0.66000003 4279173377
0.066000007 0.042114288 0.66000003 4278976769
0.067257144 0.042114288 0.66000003 4278845697
0.068514287 0.042114288 0.66000003 4279042305
0.069771431 0.042114288 0.66000003 4279238913
0.071136191 0.042178098 0.66100001 4279304449
0.072395243 0.042178098 0.66100001 4279435777
0.073765717 0.042241909 0.66200006 4279304705
0.075026669 0.042241909 0.66200006 4279173377
0.076287627 0.042241909 0.66200006 4278780161
0.077665716 0.042305715 0.66300005 4278386945
0.078928575 0.042305715 0.66300005 4278649089
0.080433339 0.042433336 0.66500002 4278911233
0.081822865 0.042497147 0.66600001 4278583553
0.083465718 0.042688575 0.66900003 4278321409
0.084866673 0.042752385 0.67000002 4278255873
0.086271435 0.042816192 0.671 4278255873
0.087680005 0.042880002 0.67200005 4278255873
0.089224771 0.043007623 0.67400002 4278255873
0.090642862 0.04307143 0.67500001 4278255873
0.092064768 0.043135241 0.67600006 4278255873
0.093352385 0.043135241 0.67600006 4278255873
0.094920009 0.043262862 0.67800003 4278255873
0.096211433 0.043262862 0.67800003 4278255873
0.031500001 0.044357147 0.67500001 4279107841
0.032785717 0.044357147 0.67500001 4278911233
0.034071431 0.044357147 0.67500001 4278780161
0.035357144 0.044357147 0.67500001 4278649090
0.036642861 0.044357147 0.67500001 4278911234
0.037872385 0.044291433 0.67400002 4279173378
0.038981907 0.044094287 0.671 4279042305
0.040200002 0.044028573 0.67000002 4278845697
0.041414287 0.043962859 0.66900003 4278911233
0.042560954 0.04383143 0.66700006 4278976769
0.043765716 0.043765716 0.66600001 4279042305
0.044966668 0.043700002 0.66500002 4279107841
0.046233337 0.043700002 0.66500002 4279238913
0.047357146 0.043568574 0.66300005 4279369985
0.048620004 0.043568574 0.66300005 4279369985
0.049882859 0.043568574 0.66300005 4279369985
0.051068574 0.04350286 0.66200006 4279173377
0.052250478 0.043437146 0.66100001 4278976770
0.053509526 0.043437146 0.66100001 4279173378
0.054685719 0.043371432 0.66000003 4279304450
0.05594286 0.043371432 0.66000003 4279501057
0.057200003 0.043371432 0.66000003 4279632129
0.058457147 0.043371432 0.66000003 4279304449
0.059714291 0.043371432 0.66000003 4278976769
0.060971431 0.043371432 0.66000003 4279173377
0.062228575 0.043371432 0.66000003 4279304449
0.063485719 0.043371432 0.66000003 4279304449
0.064742863 0.043371432 0.66000003 4279304449
0.066000007 0.043371432 0.66000003 4279304449
0.067257144 0.043371432 0.66000003 4279304449
0.068514287 0.043371432 0.66000003 4279435521
0.069771431 0.043371432 0.66000003 4279501057
0.071136191 0.043437146 0.66100001 4279566593
0.072395243 0.043437146 0.66100001 4279566593
0.073765717 0.04350286 0.66200006 4279238913
0.075026669 0.04350286 0.66200006 4278911233
0.076287627 0.04350286 0.66200006 4278714625
0.077665716 0.043568574 0.66300005 4278452481
0.078928575 0.043568574 0.66300005 4278780161
0.080433339 0.043700002 0.66500002 4279107841
0.081945717 0.04383143 0.66700006 4278714625
0.083465718 0.043962859 0.66900003 4278321409
0.084866673 0.044028573 0.67000002 4278321409
0.08614286 0.044028573 0.67000002 4278255873
0.087680005 0.044160005 0.67200005 4278255873
0.089224771 0.044291433 0.67400002 4278255873
0.09050858 0.044291433 0.67400002 4278255873
0.092064768 0.044422861 0.67600006 4278255873
0.093352385 0.044422861 0.67600006 4278255873
0.094920009 0.044554289 0.67800003 4278255873
0.031546667 0.045710478 0.67600006 4278845697
0.032834288 0.045710478 0.67600006 4278714625
0.034071431 0.04564286 0.67500001 4278649089
0.035357144 0.04564286 0.67500001 4278583554
0.036588576 0.045575242 0.67400002 4278780163
0.037872385 0.045575242 0.67400002 4279042562
0.038981907 0.045372386 0.671 4278911233
0.040200002 0.045304764 0.67000002 4278845697
0.041414287 0.045237146 0.66900003 4278911233
0.042688575 0.045237146 0.66900003 4278911233
0.043765716 0.045034289 0.66600001 4278976769
0.045034289 0.045034289 0.66600001 4279042305
0.046233337 0.044966668 0.66500002 4279107841
0.047500003 0.044966668 0.66500002 4279173377
0.048620004 0.044831432 0.66300005 4279304449
0.049882859 0.044831432 0.66300005 4279369985
0.051145718 0.044831432 0.66300005 4279173377
0.052329529 0.044763811 0.66200006 4278977026
0.053509526 0.044696193 0.66100001 4279173379
0.054685719 0.044628575 0.66000003 4279369986
0.05594286 0.044628575 0.66000003 4279435521
0.057200003 0.044628575 0.66000003 4279501057
0.058457147 0.044628575 0.66000003 4279304449
0.059714291 0.044628575 0.66000003 4279173377
0.060971431 0.044628575 0.66000003 4279238913
0.062228575 0.044628575 0.66000003 4279304449
0.063485719 0.044628575 0.66000003 4279501057
0.064742863 0.044628575 0.66000003 4279632129
0.066000007 0.044628575 0.66000003 4279566849
0.067257144 0.044628575 0.66000003 4279435521
0.068618096 0.044696193 0.66100001 4279435521
0.069877148 0.044696193 0.66100001 4279435521
0.071136191 0.044696193 0.66100001 4279369985
0.072504766 0.044763811 0.66200006 4279304449
0.073765717 0.044763811 0.66200006 4279042305
0.075026669 0.044763811 0.66200006 4278780161
0.076287627 0.044763811 0.66200006 4278649089
0.077665716 0.044831432 0.66300005 4278518017
0.078928575 0.044831432 0.66300005 4278714625
0.080433339 0.044966668 0.66500002 4278845697
0.081945717 0.045101907 0.66700006 4278583553
0.083465718 0.045237146 0.66900003 4278321409
0.084866673 0.045304764 0.67000002 4278321409
0.086271435 0.045372386 0.671 4278255873
0.087680005 0.045440003 0.67200005 4278255873
0.089224771 0.045575242 0.67400002 4278255873
0.090642862 0.04564286 0.67500001 4278255873
0.092064768 0.045710478 0.67600006 4278255873
0.093628578 0.045845717 0.67800003 4278255873
0.094920009 0.045845717 0.67800003 4278255873
0.031546667 0.046998098 0.67600006 4278518017
0.032834288 0.046998098 0.67600006 4278518017
0.034071431 0.046928573 0.67500001 4278518017
0.035357144 0.046928573 0.67500001 4278518019
0.036642861 0.046928573 0.67500001 4278714628
0.037872385 0.046859052 0.67400002 4278845699
0.038981907 0.04665048 0.671 4278845697
0.040200002 0.046580955 0.67000002 4278845697
0.041476194 0.046580955 0.67000002 4278845697
0.042688575 0.04651143 0.66900003 4278845697
0.04383143 0.046372384 0.66700006 4278911233
0.045034289 0.046302859 0.66600001 4278911233
0.046233337 0.046233337 0.66500002 4278976769
0.047500003 0.046233337 0.66500002 4278976769
0.048620004 0.046094287 0.66300005 4279173377
0.049882859 0.046094287 0.66300005 4279369985
0.051145718 0.046094287 0.66300005 4279173377
0.052250478 0.045955241 0.66100001 4278976770
0.053428575 0.045885716 0.66000003 4279173378
0.054685719 0.045885716 0.66000003 4279369986
0.05594286 0.045885716 0.66000003 4279369985
0.057200003 0.045885716 0.66000003 4279304449
0.058457147 0.045885716 0.66000003 4279304449
0.059714291 0.045885716 0.66000003 4279304449
0.060971431 0.045885716 0.66000003 4279304449
0.062228575 0.045885716 0.66000003 4279304449
0.063485719 0.045885716 0.66000003 4279632129
0.064840958 0.045955241 0.66100001 4279960065
0.066000007 0.045885716 0.66000003 4279763713
0.067359053 0.045955241 0.66100001 4279566849
0.068721913 0.046024766 0.66200006 4279501057
0.069982864 0.046024766 0.66200006 4279369985
0.071243815 0.046024766 0.66200006 4279173377
0.072504766 0.046024766 0.66200006 4278976769
0.073877148 0.046094287 0.66300005 4278780161
0.075140007 0.046094287 0.66300005 4278583553
0.076402865 0.046094287 0.66300005 4278583553
0.077665716 0.046094287 0.66300005 4278583553
0.078928575 0.046094287 0.66300005 4278583553
0.080433339 0.046233337 0.66500002 4278583553
0.081822865 0.046302859 0.66600001 4278452481
0.083216198 0.046372384 0.66700006 4278321409
0.084866673 0.046580955 0.67000002 4278321409
0.086271435 0.04665048 0.671 4278255873
0.087680005 0.046720002 0.67200005 4278255873
0.089224771 0.046859052 0.67400002 4278255873
0.090642862 0.046928573 0.67500001 4278255873
0.092337146 0.047137145 0.67800003 4278255873
0.093628578 0.047137145 0.67800003 4278255873
0.095060006 0.04720667 0.67900002 4278255873
0.031640001 0.048428576 0.67800003 4278518017
0.032834288 0.048285719 0.67600006 4278518017
0.034121908 0.048285719 0.67600006 4278583553
0.035357144 0.04821429 0.67500001 4278583555
0.036642861 0.04821429 0.67500001 4278649093
0.037872385 0.048142862 0.67400002 4278714627
0.039040003 0.048000004 0.67200005 4278649089
0.040260002 0.047928575 0.671 4278583553
0.041476194 0.047857147 0.67000002 4278649089
0.042688575 0.047785718 0.66900003 4278780161
0.043962859 0.047785718 0.66900003 4278780161
0.045101907 0.047642861 0.66700006 4278780161
0.046302859 0.047571432 0.66600001 4278976769
0.047500003 0.047500003 0.66500002 4279173377
0.048766669 0.047500003 0.66500002 4279173377
0.049882859 0.047357146 0.66300005 4279173377
0.051145718 0.047357146 0.66300005 4279173377
0.052329529 0.047285717 0.66200006 4279173377
0.053509526 0.047214288 0.66100001 4279304449
0.054685719 0.04714286 0.66000003 4279369985
0.05594286 0.04714286 0.66000003 4279173377
0.057200003 0.04714286 0.66000003 4278976769
0.05854572 0.047214288 0.66100001 4279238913
0.059804767 0.047214288 0.66100001 4279435521
0.061063815 0.047214288 0.66100001 4279566593
0.062322862 0.047214288 0.66100001 4279697665
0.063581906 0.047214288 0.66100001 4280221953
0.064939052 0.047285717 0.66200006 4280746241
0.066100001 0.047214288 0.66100001 4280025601
0.067359053 0.047214288 0.66100001 4279239169
0.068721913 0.047285717 0.66200006 4279107841
0.069982864 0.047285717 0.66200006 4278976769
0.071351431 0.047357146 0.66300005 4278845697
0.07261429 0.047357146 0.66300005 4278780161
0.073877148 0.047357146 0.66300005 4278583553
0.075140007 0.047357146 0.66300005 4278452481
0.076402865 0.047357146 0.66300005 4278518017
0.077665716 0.047357146 0.66300005 4278583553
0.078928575 0.047357146 0.66300005 4278518017
0.080433339 0.047500003 0.66500002 4278518017
0.081822865 0.047571432 0.66600001 4278386945
0.083216198 0.047642861 0.66700006 4278321409
0.084740005 0.047785718 0.66900003 4278255873
0.08614286 0.047857147 0.67000002 4278255873
0.08754953 0.047928575 0.671 4278255873
0.088960007 0.048000004 0.67200005 4278255873
0.09050858 0.048142862 0.67400002 4278255873
0.092064768 0.048285719 0.67600006 4278255873
0.093352385 0.048285719 0.67600006 4278255873
0.094920009 0.048428576 0.67800003 4278255873
0.030527622 0.050013337 0.68200004 4278583553
0.031733334 0.049866669 0.68000001 4278583553
0.032931432 0.049720004 0.67800003 4278518017
0.034121908 0.049573336 0.67600006 4278583553
0.035357144 0.049500003 0.67500001 4278649090
0.036642861 0.049500003 0.67500001 4278649091
0.037872385 0.049426671 0.67400002 4278583554
0.039156195 0.049426671 0.67400002 4278452481
0.040260002 0.04920667 0.671 4278321409
0.041476194 0.049133338 0.67000002 4278518017
0.042688575 0.049060002 0.66900003 4278649089
0.043962859 0.049060002 0.66900003 4278649089
0.045101907 0.048913337 0.66700006 4278649089
0.046302859 0.048840005 0.66600001 4278976769
0.047500003 0.048766669 0.66500002 4279304449
0.048766669 0.048766669 0.66500002 4279173377
0.050033338 0.048766669 0.66500002 4278976769
0.051145718 0.048620004 0.66300005 4279173377
0.052408576 0.048620004 0.66300005 4279369985
0.05359048 0.048546668 0.66200006 4279369985
0.054768573 0.048473336 0.66100001 4279369985
0.056027621 0.048473336 0.66100001 4279042305
0.057286669 0.048473336 0.66100001 4278649089
0.05854572 0.048473336 0.66100001 4279107841
0.059804767 0.048473336 0.66100001 4279566594
0.061063815 0.048473336 0.66100001 4279828739
0.062322862 0.048473336 0.66100001 4280025602
0.063581906 0.048473336 0.66100001 4280812033
0.064840958 0.048473336 0.66100001 4281532929
0.066100001 0.048473336 0.66100001 4280222209
0.067460954 0.048546668 0.66200006 4278911489
0.068721913 0.048546668 0.66200006 4278714625
0.069982864 0.048546668 0.66200006 4278518017
0.071243815 0.048546668 0.66200006 4278518017
0.07261429 0.048620004 0.66300005 4278518017
0.073877148 0.048620004 0.66300005 4278452481
0.075140007 0.048620004 0.66300005 4278321409
0.076402865 0.048620004 0.66300005 4278452481
0.077665716 0.048620004 0.66300005 4278518017
0.079166673 0.048766669 0.66500002 4278452481
0.080554292 0.048840005 0.66600001 4278386945
0.081945717 0.048913337 0.66700006 4278321409
0.083216198 0.048913337 0.66700006 4278255873
0.084740005 0.049060002 0.66900003 4278255873
0.08614286 0.049133338 0.67000002 4278255873
0.087680005 0.049280003 0.67200005 4278255873
0.088960007 0.049280003 0.67200005 4278255873
0.09050858 0.049426671 0.67400002 4278255873
0.092064768 0.049573336 0.67600006 4278255873
0.093352385 0.049573336 0.67600006 4278255873
0.094920009 0.049720004 0.67800003 4278255873
0.029400002 0.051613338 0.68600005 4278518017
0.030617144 0.051462859 0.68400002 4278583553
0.031826667 0.051312383 0.68200004 4278518017
0.032980002 0.051086672 0.67900002 4278452481
0.034121908 0.050860956 0.67600006 4278583553
0.035409525 0.050860956 0.67600006 4278714625
0.036642861 0.050785717 0.67500001 4278714625
0.037872385 0.050710481 0.67400002 4278780161
0.039156195 0.050710481 0.67400002 4278649089
0.040260002 0.050484765 0.671 4278583553
0.041476194 0.050409526 0.67000002 4278714625
0.042752385 0.050409526 0.67000002 4278845697
0.043962859 0.05033429 0.66900003 4278780161
0.045237146 0.05033429 0.66900003 4278780161
0.046372384 0.050183814 0.66700006 4279042305
0.047571432 0.050108574 0.66600001 4279304449
0.048766669 0.050033338 0.66500002 4279042305
0.050033338 0.050033338 0.66500002 4278845697
0.051300004 0.050033338 0.66500002 4279173377
0.052408576 0.049882859 0.66300005 4279501057
0.05359048 0.049807623 0.66200006 4279697665
0.054851431 0.049807623 0.66200006 4279894273
0.056112386 0.049807623 0.66200006 4279763201
0.057286669 0.049732383 0.66100001 4279632129
0.05854572 0.049732383 0.66100001 4280090881
0.059895243 0.049807623 0.66200006 4280549635
0.061156195 0.049807623 0.66200006 4280222212
0.062417146 0.049807623 0.66200006 4279960323
0.063678101 0.049807623 0.66200006 4280091137
0.064939052 0.049807623 0.66200006 4280221953
0.066100001 0.049732383 0.66100001 4279435521
0.067460954 0.049807623 0.66200006 4278714625
0.068721913 0.049807623 0.66200006 4278583553
0.069982864 0.049807623 0.66200006 4278452481
0.071351431 0.049882859 0.66300005 4278518017
0.07261429 0.049882859 0.66300005 4278583553
0.073877148 0.049882859 0.66300005 4278518017
0.075140007 0.049882859 0.66300005 4278452481
0.076633342 0.050033338 0.66500002 4278518017
0.077900007 0.050033338 0.66500002 4278583553
0.079166673 0.050033338 0.66500002 4278452481
0.080554292 0.050108574 0.66600001 4278386945
0.081945717 0.050183814 0.66700006 4278321409
0.083465718 0.05033429 0.66900003 4278321409
0.084740005 0.05033429 0.66900003 4278255873
0.08614286 0.050409526 0.67000002 4278255873
0.08754953 0.050484765 0.671 4278255873
0.088960007 0.050560005 0.67200005 4278255873
0.09050858 0.050710481 0.67400002 4278255873
0.092064768 0.050860956 0.67600006 4278255873
0.093628578 0.051011432 0.67800003 4278255873
0.094920009 0.051011432 0.67800003 4278255873
0.02944286 0.052997146 0.68700004 4278583553
0.030706668 0.052920002 0.68600005 4278583553
0.031920001 0.05276572 0.68400002 4278452481
0.033028573 0.052457146 0.68000001 4278321409
0.03422286 0.05230286 0.67800003 4278518017
0.035409525 0.052148573 0.67600006 4278714625
0.036642861 0.052071434 0.67500001 4278845697
0.037928574 0.052071434 0.67500001 4278911233
0.039156195 0.05199429 0.67400002 4278911233
0.040260002 0.05176286 0.671 4278845697
0.041476194 0.051685717 0.67000002 4278911233
0.042752385 0.051685717 0.67000002 4278976769
0.043962859 0.051608574 0.66900003 4278976769
0.045101907 0.051454291 0.66700006 4278911233
0.046372384 0.051454291 0.66700006 4279107841
0.047571432 0.051377147 0.66600001 4279304449
0.048766669 0.051300004 0.66500002 4278976769
0.050033338 0.051300004 0.66500002 4278649345
0.051300004 0.051300004 0.66500002 4279173377
0.052408576 0.051145718 0.66300005 4279632129
0.053671431 0.051145718 0.66300005 4280025345
0.054851431 0.051068574 0.66200006 4280353025
0.056112386 0.051068574 0.66200006 4280484098
0.057373337 0.051068574 0.66200006 4280549889
0.05854572 0.050991431 0.66100001 4281074177
0.059895243 0.051068574 0.66200006 4281532674
0.061156195 0.051068574 0.66200006 4280680707
0.062417146 0.051068574 0.66200006 4279828994
0.063678101 0.051068574 0.66200006 4279369985
0.064939052 0.051068574 0.66200006 4278845697
0.066200003 0.051068574 0.66200006 4278649089
0.067562863 0.051145718 0.66300005 4278452481
0.068825722 0.051145718 0.66300005 4278386945
0.070088573 0.051145718 0.66300005 4278321409
0.071351431 0.051145718 0.66300005 4278452481
0.07261429 0.051145718 0.66300005 4278583553
0.073877148 0.051145718 0.66300005 4278583554
0.075366668 0.051300004 0.66500002 4278583553
0.076633342 0.051300004 0.66500002 4278583553
0.077900007 0.051300004 0.66500002 4278583553
0.079166673 0.051300004 0.66500002 4278452481
0.080554292 0.051377147 0.66600001 4278321409
0.081945717 0.051454291 0.66700006 4278321409
0.083465718 0.051608574 0.66900003 4278321409
0.084866673 0.051685717 0.67000002 4278321409
0.08614286 0.051685717 0.67000002 4278255873
0.087680005 0.051840004 0.67200005 4278255873
0.088960007 0.051840004 0.67200005 4278255873
0.090642862 0.052071434 0.67500001 4278255873
0.092064768 0.052148573 0.67600006 4278255873
0.093352385 0.052148573 0.67600006 4278255873
0.094920009 0.05230286 0.67800003 4278255873
0.096495241 0.052457146 0.68000001 4278321409
0.029528573 0.054463815 0.68900001 4278780161
0.030751431 0.054305717 0.68700004 4278780161
0.031920001 0.054068577 0.68400002 4278714625
0.033125717 0.053910479 0.68200004 4278649089
0.034273334 0.053673338 0.67900002 4278780161
0.035409525 0.053436194 0.67600006 4278976769
0.036642861 0.053357147 0.67500001 4278976769
0.037928574 0.053357147 0.67500001 4279042305
0.039156195 0.0532781 0.67400002 4279042305
0.040260002 0.053040955 0.671 4279042305
0.041538097 0.053040955 0.671 4279173377
0.042752385 0.052961908 0.67000002 4279304449
0.043962859 0.052882861 0.66900003 4279435521
0.045237146 0.052882861 0.66900003 4279566593
0.046372384 0.052724764 0.66700006 4279763201
0.047571432 0.052645717 0.66600001 4280025345
0.048766669 0.05256667 0.66500002 4279894529
0.050033338 0.05256667 0.66500002 4279829249
0.051300004 0.05256667 0.66500002 4280091137
0.05256667 0.05256667 0.66500002 4280353025
0.053671431 0.052408576 0.66300005 4280680961
0.054934289 0.052408576 0.66300005 4281074178
0.056112386 0.052329529 0.66200006 4280680962
0.057373337 0.052329529 0.66200006 4280353282
0.058634289 0.052329529 0.66200006 4280549889
0.059895243 0.052329529 0.66200006 4280746241
0.061156195 0.052329529 0.66200006 4280156417
0.062417146 0.052329529 0.66200006 4279632129
0.063678101 0.052329529 0.66200006 4279369985
0.064939052 0.052329529 0.66200006 4279107841
0.066200003 0.052329529 0.66200006 4278911233
0.067562863 0.052408576 0.66300005 4278714625
0.068825722 0.052408576 0.66300005 4278649089
0.070088573 0.052408576 0.66300005 4278583553
0.071351431 0.052408576 0.66300005 4278649089
0.07261429 0.052408576 0.66300005 4278714626
0.074100003 0.05256667 0.66500002 4278649090
0.075366668 0.05256667 0.66500002 4278583554
0.076633342 0.05256667 0.66500002 4278583553
0.077900007 0.05256667 0.66500002 4278583553
0.079166673 0.05256667 0.66500002 4278452481
0.080554292 0.052645717 0.66600001 4278321409
0.082191437 0.052882861 0.66900003 4278321409
0.083465718 0.052882861 0.66900003 4278321409
0.084866673 0.052961908 0.67000002 4278255873
0.086271435 0.053040955 0.671 4278255873
0.087680005 0.053120002 0.67200005 4278255873
0.089224771 0.0532781 0.67400002 4278255873
0.090642862 0.053357147 0.67500001 4278255873
0.092064768 0.053436194 0.67600006 4278255873
0.093352385 0.053436194 0.67600006 4278255873
0.094920009 0.053594287 0.67800003 4278255873
0.096779056 0.053910479 0.68200004 4278321409
0.098221913 0.053989526 0.68300003 4278321409
0.029528573 0.055776194 0.68900001 4278976769
0.030751431 0.055614289 0.68700004 4278911233
0.032013334 0.055533338 0.68600005 4278911233
0.033222858 0.055371433 0.68400002 4278911233
0.034475241 0.055290479 0.68300003 4279042305
0.035514288 0.054885719 0.67800003 4279173377
0.036697146 0.054723814 0.67600006 4279173377
0.037928574 0.05464286 0.67500001 4279173377
0.039156195 0.054561909 0.67400002 4279238913
0.040320002 0.054400004 0.67200005 4279238913
0.041538097 0.05431905 0.671 4279435521
0.042752385 0.0542381 0.67000002 4279632129
0.043962859 0.054157145 0.66900003 4279894273
0.045237146 0.054157145 0.66900003 4280156673
0.046372384 0.05399524 0.66700006 4280484097
0.047571432 0.05391429 0.66600001 4280746753
0.048840005 0.05391429 0.66600001 4280877825
0.050033338 0.053833336 0.66500002 4280943618
0.051300004 0.053833336 0.66500002 4281009156
0.05256667 0.053833336 0.66500002 4281008898
0.053671431 0.053671431 0.66300005 4281402625
0.054934289 0.053671431 0.66300005 4281795329
0.056112386 0.05359048 0.66200006 4280943106
0.057373337 0.05359048 0.66200006 4280091137
0.058634289 0.05359048 0.66200006 4280025345
0.059895243 0.05359048 0.66200006 4279959809
0.061156195 0.05359048 0.66200006 4279697665
0.062417146 0.05359048 0.66200006 4279369985
0.063678101 0.05359048 0.66200006 4279369985
0.064939052 0.05359048 0.66200006 4279304449
0.066200003 0.05359048 0.66200006 4279173377
0.067562863 0.053671431 0.66300005 4278976769
0.068825722 0.053671431 0.66300005 4278911233
0.070088573 0.053671431 0.66300005 4278845697
0.071351431 0.053671431 0.66300005 4278845697
0.07261429 0.053671431 0.66300005 4278845697
0.074100003 0.053833336 0.66500002 4278714626
0.075366668 0.053833336 0.66500002 4278583553
0.076633342 0.053833336 0.66500002 4278583553
0.078017145 0.05391429 0.66600001 4278583553
0.079285719 0.05391429 0.66600001 4278452481
0.080675244 0.05399524 0.66700006 4278321409
0.082191437 0.054157145 0.66900003 4278321409
0.083590485 0.0542381 0.67000002 4278255873
0.084866673 0.0542381 0.67000002 4278255873
0.086271435 0.05431905 0.671 4278255873
0.087680005 0.054400004 0.67200005 4278255873
0.089224771 0.054561909 0.67400002 4278255873
0.090642862 0.05464286 0.67500001 4278255873
0.092064768 0.054723814 0.67600006 4278255873
0.093766674 0.05496667 0.67900002 4278255873
0.095060006 0.05496667 0.67900002 4278255873
0.096495241 0.055047624 0.68000001 4278255873
0.098078102 0.055209529 0.68200004 4278255873
0.029571431 0.057171434 0.69000006 4279369985
0.030751431 0.05692286 0.68700004 4279435521
0.032013334 0.056840003 0.68600005 4279370241
0.033222858 0.05667429 0.68400002 4279370241
0.034424763 0.056508575 0.68200004 4279501313
0.035514288 0.056177147 0.67800003 4279632129
0.036697146 0.056011431 0.67600006 4279566849
0.037928574 0.055928577 0.67500001 4279566849
0.039214287 0.055928577 0.67500001 4279697921
0.040320002 0.055680003 0.67200005 4279828737
0.041600004 0.055680003 0.67200005 4280025601
0.042752385 0.055514291 0.67000002 4280221953
0.043962859 0.055431433 0.66900003 4280484353
0.045237146 0.055431433 0.66900003 4280681217
0.046372384 0.055265717 0.66700006 4281009153
0.047571432 0.055182859 0.66600001 4281337089
0.048766669 0.055100005 0.66500002 4281075201
0.050033338 0.055100005 0.66500002 4280878340
0.051300004 0.055100005 0.66500002 4280812550
0.05256667 0.055100005 0.66500002 4280746500
0.053671431 0.054934289 0.66300005 4280877569
0.054934289 0.054934289 0.66300005 4281008385
0.056197148 0.054934289 0.66300005 4280353025
0.057373337 0.054851431 0.66200006 4279697665
0.058634289 0.054851431 0.66200006 4279697665
0.059895243 0.054851431 0.66200006 4279632129
0.061156195 0.054851431 0.66200006 4279566593
0.062322862 0.054768573 0.66100001 4279435521
0.063678101 0.054851431 0.66200006 4279369985
0.064840958 0.054768573 0.66100001 4279369985
0.066200003 0.054851431 0.66200006 4279304449
0.067562863 0.054934289 0.66300005 4279238913
0.068825722 0.054934289 0.66300005 4279042305
0.070088573 0.054934289 0.66300005 4278845697
0.071351431 0.054934289 0.66300005 4278780161
0.07261429 0.054934289 0.66300005 4278714625
0.074100003 0.055100005 0.66500002 4278583553
0.075366668 0.055100005 0.66500002 4278452481
0.076633342 0.055100005 0.66500002 4278518017
0.078017145 0.055182859 0.66600001 4278649089
0.079285719 0.055182859 0.66600001 4278518017
0.080675244 0.055265717 0.66700006 4278452481
0.082191437 0.055431433 0.66900003 4278386945
0.083590485 0.055514291 0.67000002 4278321409
0.084866673 0.055514291 0.67000002 4278255873
0.08614286 0.055514291 0.67000002 4278255873
0.08754953 0.055597145 0.671 4278255873
0.088960007 0.055680003 0.67200005 4278255873
0.09050858 0.055845719 0.67400002 4278255873
0.092064768 0.056011431 0.67600006 4278255873
0.093766674 0.056260005 0.67900002 4278255873
0.095060006 0.056260005 0.67900002 4278255873
0.096353337 0.056260005 0.67900002 4278321409
0.097646676 0.056260005 0.67900002 4278321409
0.098940007 0.056260005 0.67900002 4278321409
0.029571431 0.058485717 0.69000006 4279828993
0.030751431 0.058231432 0.68700004 4279960321
0.032013334 0.05814667 0.68600005 4279895042
0.033222858 0.057977147 0.68400002 4279763713
0.034323812 0.057638098 0.68000001 4279894529
0.035514288 0.057468574 0.67800003 4280026114
0.036697146 0.057299051 0.67600006 4280026115
0.037928574 0.05721429 0.67500001 4279960834
0.039214287 0.05721429 0.67500001 4280222465
0.040440004 0.057129528 0.67400002 4280419329
0.041600004 0.056960005 0.67200005 4280615681
0.042752385 0.056790479 0.67000002 4280812547
0.043962859 0.056705717 0.66900003 4281009157
0.045237146 0.056705717 0.66900003 4281205763
0.046372384 0.056536194 0.66700006 4281533697
0.047571432 0.056451432 0.66600001 4281861633
0.048766669 0.056366671 0.66500002 4281338625
0.050033338 0.056366671 0.66500002 4280813058
0.051300004 0.056366671 0.66500002 4280615940
0.05256667 0.056366671 0.66500002 4280418819
0.053671431 0.056197148 0.66300005 4280287490
0.054934289 0.056197148 0.66300005 4280156417
0.056197148 0.056197148 0.66300005 4279763201
0.057373337 0.056112386 0.66200006 4279304449
0.058634289 0.056112386 0.66200006 4279304449
0.059895243 0.056112386 0.66200006 4279304449
0.061156195 0.056112386 0.66200006 4279435521
0.062322862 0.056027621 0.66100001 4279501057
0.063678101 0.056112386 0.66200006 4279435521
0.064840958 0.056027621 0.66100001 4279369985
0.066200003 0.056112386 0.66200006 4279435521
0.067562863 0.056197148 0.66300005 4279501057
0.068825722 0.056197148 0.66300005 4279173377
0.070088573 0.056197148 0.66300005 4278845697
0.071351431 0.056197148 0.66300005 4278714625
0.07261429 0.056197148 0.66300005 4278583553
0.074100003 0.056366671 0.66500002 4278452481
0.075366668 0.056366671 0.66500002 4278321409
0.07674858 0.056451432 0.66600001 4278518017
0.078017145 0.056451432 0.66600001 4278649089
0.079404764 0.056536194 0.66700006 4278649089
0.080675244 0.056536194 0.66700006 4278583553
0.082191437 0.056705717 0.66900003 4278452481
0.083465718 0.056705717 0.66900003 4278321409
0.084866673 0.056790479 0.67000002 4278321409
0.08614286 0.056790479 0.67000002 4278255873
0.08754953 0.05687524 0.671 4278255873
0.088960007 0.056960005 0.67200005 4278255873
0.09050858 0.057129528 0.67400002 4278255873
0.092064768 0.057299051 0.67600006 4278255873
0.093628578 0.057468574 0.67800003 4278255873
0.094920009 0.057468574 0.67800003 4278255873
0.096211433 0.057468574 0.67800003 4278321409
0.097502865 0.057468574 0.67800003 4278386945
0.098940007 0.057553336 0.67900002 4278321409
0.029571431 0.059800003 0.69000006 4279960321
0.030751431 0.059540004 0.68700004 4280288258
0.032013334 0.059453338 0.68600005 4280091650
0.033174288 0.059193335 0.68300003 4279894530
0.034323812 0.058933336 0.68000001 4280222721
0.035514288 0.058760002 0.67800003 4280551427
0.036642861 0.058500003 0.67500001 4280158212
0.037928574 0.058500003 0.67500001 4279831043
0.039156195 0.058413338 0.67400002 4280092929
0.040320002 0.058240004 0.67200005 4280289793
0.041600004 0.058240004 0.67200005 4280485889
0.042816192 0.058153339 0.671 4280617221
0.044028573 0.05806667 0.67000002 4280747785
0.045237146 0.057980005 0.66900003 4280878085
0.046372384 0.057806671 0.66700006 4280943873
0.047642861 0.057806671 0.66700006 4281009153
0.048840005 0.057720006 0.66600001 4280681729
0.050108574 0.057720006 0.66600001 4280353537
0.051300004 0.057633337 0.66500002 4279960065
0.05256667 0.057633337 0.66500002 4279566594
0.053833336 0.057633337 0.66500002 4279632130
0.054934289 0.057460003 0.66300005 4279763202
0.056197148 0.057460003 0.66300005 4279501057
0.057460003 0.057460003 0.66300005 4279304449
0.058634289 0.057373337 0.66200006 4279304449
0.059895243 0.057373337 0.66200006 4279304449
0.061156195 0.057373337 0.66200006 4279697665
0.062417146 0.057373337 0.66200006 4280025345
0.063678101 0.057373337 0.66200006 4279566593
0.064939052 0.057373337 0.66200006 4279173377
0.066200003 0.057373337 0.66200006 4279173377
0.067562863 0.057460003 0.66300005 4279238913
0.068825722 0.057460003 0.66300005 4278911233
0.070088573 0.057460003 0.66300005 4278583553
0.071351431 0.057460003 0.66300005 4278583553
0.07261429 0.057460003 0.66300005 4278583553
0.074100003 0.057633337 0.66500002 4278583553
0.075366668 0.057633337 0.66500002 4278649089
0.076633342 0.057633337 0.66500002 4278845697
0.078017145 0.057720006 0.66600001 4278976769
0.079285719 0.057720006 0.66600001 4278911233
0.080675244 0.057806671 0.66700006 4278780161
0.082191437 0.057980005 0.66900003 4278649089
0.083590485 0.05806667 0.67000002 4278518017
0.084866673 0.05806667 0.67000002 4278386945
0.086271435 0.058153339 0.671 4278321409
0.08754953 0.058153339 0.671 4278321409
0.089224771 0.058413338 0.67400002 4278255873
0.09050858 0.058413338 0.67400002 4278255873
0.092064768 0.058586672 0.67600006 4278255873
0.093628578 0.058760002 0.67800003 4278255873
0.094640009 0.058586672 0.67600006 4278255873
0.095927626 0.058586672 0.67600006 4278321409
0.097215243 0.058586672 0.67600006 4278321409
0.031920001 0.060582861 0.68400002 4280288514
0.033222858 0.060582861 0.68400002 4279960577
0.034424763 0.06040572 0.68200004 4280484609
0.035566669 0.060140003 0.67900002 4281009666
0.036697146 0.059874289 0.67600006 4280355331
0.037928574 0.05978572 0.67500001 4279699714
0.039214287 0.05978572 0.67500001 4279962369
0.040440004 0.059697147 0.67400002 4280158721
0.041600004 0.059520002 0.67200005 4280289793
0.042816192 0.059431434 0.671 4280420611
0.044028573 0.059342861 0.67000002 4280486405
0.045237146 0.059254289 0.66900003 4280551427
0.04651143 0.059254289 0.66900003 4280354305
0.047642861 0.059077147 0.66700006 4280157185
0.048840005 0.058988575 0.66600001 4280025601
0.050108574 0.058988575 0.66600001 4279828993
0.051300004 0.058900002 0.66500002 4279304449
0.05256667 0.058900002 0.66500002 4278714625
0.053833336 0.058900002 0.66500002 4279042306
0.054934289 0.058722861 0.66300005 4279304449
0.056197148 0.058722861 0.66300005 4279304449
0.057460003 0.058722861 0.66300005 4279304449
0.058634289 0.058634289 0.66200006 4279304449
0.059895243 0.058634289 0.66200006 4279304449
0.061156195 0.058634289 0.66200006 4279959809
0.062417146 0.058634289 0.66200006 4280549633
0.063678101 0.058634289 0.66200006 4279763201
0.064939052 0.058634289 0.66200006 4278911233
0.066200003 0.058634289 0.66200006 4278911233
0.067562863 0.058722861 0.66300005 4278911233
0.068825722 0.058722861 0.66300005 4278649089
0.070088573 0.058722861 0.66300005 4278321409
0.071351431 0.058722861 0.66300005 4278452481
0.072833337 0.058900002 0.66500002 4278518017
0.074100003 0.058900002 0.66500002 4278780161
0.075366668 0.058900002 0.66500002 4278976769
0.07674858 0.058988575 0.66600001 4279173377
0.078017145 0.058988575 0.66600001 4279304449
0.079404764 0.059077147 0.66700006 4279173633
0.080675244 0.059077147 0.66700006 4278977025
0.082191437 0.059254289 0.66900003 4278845697
0.083590485 0.059342861 0.67000002 4278649089
0.084866673 0.059342861 0.67000002 4278518017
0.086271435 0.059431434 0.671 4278386945
0.087680005 0.059520002 0.67200005 4278321409
0.089224771 0.059697147 0.67400002 4278255873
0.090642862 0.05978572 0.67500001 4278255873
0.092064768 0.059874289 0.67600006 4278255873
0.093352385 0.059874289 0.67600006 4278255873
0.094920009 0.060051434 0.67800003 4278255873
0.096353337 0.060140003 0.67900002 4278255873
0.097646676 0.060140003 0.67900002 4278255873
0.031920001 0.061885718 0.68400002 4279830017
0.033222858 0.061885718 0.68400002 4279633409
0.034475241 0.061795242 0.68300003 4280091649
0.035566669 0.061433338 0.67900002 4280550145
0.036805715 0.061342862 0.67800003 4280223233
0.037984766 0.061161909 0.67600006 4279895297
0.039214287 0.061071433 0.67500001 4280223745
0.040500004 0.061071433 0.67500001 4280617473
0.041600004 0.060800005 0.67200005 4280289025
0.042816192 0.060709529 0.671 4280026369
0.044028573 0.060619052 0.67000002 4279895809
0.045237146 0.060528576 0.66900003 4279831297
0.04651143 0.060528576 0.66900003 4279764225
0.047642861 0.060347624 0.66700006 4279763457
0.048913337 0.060347624 0.66700006 4279566849
0.050108574 0.060257148 0.66600001 4279435521
0.051377147 0.060257148 0.66600001 4279238913
0.05256667 0.060166672 0.66500002 4279042305
0.053833336 0.060166672 0.66500002 4279173377
0.055100005 0.060166672 0.66500002 4279304449
0.056197148 0.05998572 0.66300005 4279304449
0.057460003 0.05998572 0.66300005 4279304449
0.058722861 0.05998572 0.66300005 4279238913
0.059895243 0.059895243 0.66200006 4279173377
0.061248574 0.05998572 0.66300005 4279566593
0.062417146 0.059895243 0.66200006 4279959809
0.063678101 0.059895243 0.66200006 4279304449
0.065037146 0.05998572 0.66300005 4278649089
0.066300005 0.05998572 0.66300005 4278780161
0.067562863 0.05998572 0.66300005 4278911233
0.068825722 0.05998572 0.66300005 4278714625
0.070088573 0.05998572 0.66300005 4278452481
0.071351431 0.05998572 0.66300005 4278583553
0.072833337 0.060166672 0.66500002 4278714625
0.074100003 0.060166672 0.66500002 4279435777
0.075366668 0.060166672 0.66500002 4280091137
0.076633342 0.060166672 0.66500002 4279763201
0.078017145 0.060257148 0.66600001 4279501057
0.079404764 0.060347624 0.66700006 4279501313
0.080675244 0.060347624 0.66700006 4279501313
0.082191437 0.060528576 0.66900003 4279239169
0.083590485 0.060619052 0.67000002 4278976769
0.084866673 0.060619052 0.67000002 4278649089
0.086271435 0.060709529 0.671 4278386945
0.087680005 0.060800005 0.67200005 4278321409
0.089224771 0.060980957 0.67400002 4278255873
0.09050858 0.060980957 0.67400002 4278255873
0.092064768 0.061161909 0.67600006 4278255873
0.093628578 0.061342862 0.67800003 4278255873
0.094920009 0.061342862 0.67800003 4278255873
0.095927626 0.061161909 0.67600006 4278255873
0.097215243 0.061161909 0.67600006 4278255873
0.031920001 0.063188575 0.68400002 4279436802
0.033222858 0.063188575 0.68400002 4279305474
0.034475241 0.063096195 0.68300003 4279698435
0.03561905 0.062819049 0.68000001 4280026117
0.036805715 0.062634289 0.67800003 4280091655
0.037984766 0.06244953 0.67600006 4280091908
0.039214287 0.062357146 0.67500001 4280550657
0.040500004 0.062357146 0.67500001 4281009409
0.041600004 0.062080003 0.67200005 4280288001
0.042816192 0.061987624 0.671 4279567105
0.044028573 0.061895244 0.67000002 4279304961
0.045304764 0.061895244 0.67000002 4279043074
0.04651143 0.06180286 0.66900003 4279173378
0.047785718 0.06180286 0.66900003 4279304450
0.048913337 0.061618101 0.66700006 4279173377
0.050183814 0.061618101 0.66700006 4278976769
0.051377147 0.061525717 0.66600001 4279173377
0.052645717 0.061525717 0.66600001 4279304449
0.053833336 0.061433338 0.66500002 4279304449
0.055100005 0.061433338 0.66500002 4279304449
0.056366671 0.061433338 0.66500002 4279304449
0.057460003 0.061248574 0.66300005 4279304449
0.058722861 0.061248574 0.66300005 4279173633
0.05998572 0.061248574 0.66300005 4279042305
0.061248574 0.061248574 0.66300005 4279238913
