# .PCD v0.7 - Point Cloud Data file format
VERSION 0.7
FIELDS x y z rgba
SIZE 4 4 4 4
TYPE F F F U
COUNT 1 1 1 1
WIDTH 1087
HEIGHT 1
VIEWPOINT 0 0 0 1 0 0 0
POINTS 1087
DATA ascii
0.025226668 0.11557334 0.61600006 4280025627
0.026400002 0.11557334 0.61600006 4279959843
0.027662858 0.11594858 0.61800003 4279894291
0.028840002 0.11594858 0.61800003 4279763204
0.030017145 0.11594858 0.61800003 4279566594
0.031244764 0.1161362 0.61900002 4279238913
0.032423813 0.1161362 0.61900002 4278911233
0.033657145 0.11632381 0.62 4278911234
0.034838099 0.11632381 0.62 4278911234
0.03601905 0.11632381 0.62 4278911234
0.037200004 0.11632381 0.62 4278845698
0.038380954 0.11632381 0.62 4278845699
0.039689526 0.11669905 0.62200004 4278845698
0.040874287 0.11669905 0.62200004 4278714625
0.042059049 0.11669905 0.62200004 4278518017
0.043382861 0.1170743 0.62400001 4278452481
0.044642862 0.11726191 0.625 4278386945
0.04590667 0.11744953 0.62600005 4278386945
0.04717429 0.11763715 0.62700003 4278321409
0.04852286 0.11801239 0.62900001 4278321409
0.049720954 0.11801239 0.62900001 4278321409
0.051080957 0.11838762 0.63100004 4278321409
0.052282862 0.11838762 0.63100004 4278321410
0.053654291 0.11876287 0.63300002 4278386947
0.055033337 0.11913811 0.63500005 4278452739
0.056331433 0.11932572 0.63600004 4278846211
-0.0042333337 0.12034763 0.63500005 4279828994
-0.003009524 0.11977906 0.63200003 4279697666
-0.0018028573 0.11958953 0.63100004 4279828737
-0.00059904763 0.11921048 0.62900001 4279959809
0.0005980953 0.11902096 0.62800002 4280287489
0.0017914287 0.11883143 0.62700003 4280615169
0.0029809526 0.11864191 0.62600005 4281008385
0.0041733338 0.11864191 0.62600005 4281401601
0.005357143 0.11845239 0.625 4281401601
0.0065476196 0.11845239 0.625 4281467137
0.0077257147 0.11826286 0.62400001 4283171073
0.0089142863 0.11826286 0.62400001 4284875009
0.010086668 0.11807334 0.62300003 4285932033
0.011273334 0.11807334 0.62300003 4287037697
0.012440001 0.11788382 0.62200004 4284219649
0.013580954 0.11750477 0.62 4281467137
0.014738096 0.11731525 0.61900002 4281270529
0.015917145 0.11731525 0.61900002 4281073921
0.017096192 0.11731525 0.61900002 4280549633
0.018245716 0.11712572 0.61800003 4280025346
0.019422859 0.11712572 0.61800003 4279894275
0.020566668 0.1169362 0.61700004 4279763209
0.021741906 0.1169362 0.61700004 4279435534
0.022880001 0.11674667 0.61600006 4279173398
0.024053335 0.11674667 0.61600006 4279894301
0.025267622 0.1169362 0.61700004 4280615452
0.026442859 0.1169362 0.61700004 4280222235
0.027707621 0.11731525 0.61900002 4279894287
0.028886668 0.11731525 0.61900002 4279763202
0.030065717 0.11731525 0.61900002 4279566594
0.031244764 0.11731525 0.61900002 4279304449
0.032423813 0.11731525 0.61900002 4279042305
0.033657145 0.11750477 0.62 4279173377
0.034838099 0.11750477 0.62 4279304449
0.03601905 0.11750477 0.62 4279107841
0.037200004 0.11750477 0.62 4278911233
0.038504764 0.11788382 0.62200004 4278911233
0.039689526 0.11788382 0.62200004 4278911233
0.040874287 0.11788382 0.62200004 4278714625
0.04212667 0.11807334 0.62300003 4278583553
0.043382861 0.11826286 0.62400001 4278518017
0.044714287 0.11864191 0.62600005 4278386945
0.045980003 0.11883143 0.62700003 4278386945
0.047324765 0.11921048 0.62900001 4278321409
0.048677146 0.11958953 0.63100004 4278321409
0.049958099 0.11977906 0.63200003 4278321409
0.051242862 0.11996858 0.63300002 4278321409
0.052531432 0.12015811 0.634 4278321409
0.053908575 0.12053715 0.63600004 4278452481
0.055293337 0.1209162 0.63800001 4278583553
0.056597147 0.12110572 0.63900006 4278977537
0.057814289 0.12110572 0.63900006 4279372044
-0.0042266669 0.12136572 0.634 4279632130
-0.003009524 0.12098286 0.63200003 4279304449
-0.0018028573 0.12079144 0.63100004 4279435521
-0.00059904763 0.12040858 0.62900001 4279566593
0.0005980953 0.12021715 0.62800002 4279959809
0.0017914287 0.12002572 0.62700003 4280353025
0.0029857145 0.12002572 0.62700003 4280877313
0.0041733338 0.1198343 0.62600005 4281401601
0.005357143 0.11964287 0.625 4281270529
0.0065476196 0.11964287 0.625 4281073942
0.0077257147 0.11945143 0.62400001 4284678443
0.0089142863 0.11945143 0.62400001 4288232252
0.010102858 0.11945143 0.62400001 4290086221
0.011273334 0.11926001 0.62300003 4291902503
0.012440001 0.11906858 0.62200004 4286382337
0.013624763 0.11906858 0.62200004 4280811778
0.014761906 0.11868572 0.62 4281008386
0.015917145 0.11849429 0.61900002 4281139458
0.017096192 0.11849429 0.61900002 4280549633
0.018245716 0.11830287 0.61800003 4279894274
0.019422859 0.11830287 0.61800003 4279763202
0.020566668 0.11811144 0.61700004 4279566601
0.021741906 0.11811144 0.61700004 4279173392
0.022917144 0.11811144 0.61700004 4278780185
0.024092382 0.11811144 0.61700004 4279959842
0.025308574 0.11830287 0.61800003 4281139757
0.026485717 0.11830287 0.61800003 4280549943
0.027707621 0.11849429 0.61900002 4279894304
0.028886668 0.11849429 0.61900002 4279763209
0.030065717 0.11849429 0.61900002 4279566600
0.031244764 0.11849429 0.61900002 4279369991
0.032476194 0.11868572 0.62 4279107855
0.033657145 0.11868572 0.62 4279370007
0.034838099 0.11868572 0.62 4279632140
0.03601905 0.11868572 0.62 4279304449
0.037320003 0.11906858 0.62200004 4278976769
0.038504764 0.11906858 0.62200004 4278976769
0.039689526 0.11906858 0.62200004 4278911233
0.040940002 0.11926001 0.62300003 4278780161
0.04212667 0.11926001 0.62300003 4278649101
0.043452382 0.11964287 0.625 4278518040
0.044714287 0.1198343 0.62600005 4278386957
0.045980003 0.12002572 0.62700003 4278386945
0.047324765 0.12040858 0.62900001 4278321409
0.04875429 0.12098286 0.63200003 4278321409
0.049958099 0.12098286 0.63200003 4278321409
0.051242862 0.12117429 0.63300002 4278321409
0.052531432 0.12136572 0.634 4278321409
0.053908575 0.12174858 0.63600004 4278518017
0.055120002 0.12174858 0.63600004 4278714881
0.056508575 0.12213144 0.63800001 4279173889
-0.0042400002 0.12296001 0.63600004 4279632129
-0.0030142858 0.12238001 0.63300002 4279369985
-0.0018028573 0.12199334 0.63100004 4279238913
-0.00059904763 0.12160668 0.62900001 4279107841
0.00059904763 0.12160668 0.62900001 4279435521
0.0017942858 0.12141334 0.62800002 4279828737
0.0029857145 0.12122001 0.62700003 4280353025
0.0041733338 0.12102667 0.62600005 4280877313
0.005357143 0.12083334 0.625 4280680705
0.0065476196 0.12083334 0.625 4280484139
0.0077380957 0.12083334 0.625 4285209173
0.0089142863 0.12064001 0.62400001 4289946743
0.010102858 0.12064001 0.62400001 4290936728
0.011291429 0.12064001 0.62400001 4291979853
0.012460001 0.12044667 0.62300003 4286847745
0.013624763 0.12025334 0.62200004 4281729282
0.014761906 0.11986668 0.62 4281270531
0.015917145 0.11967334 0.61900002 4280811778
0.017096192 0.11967334 0.61900002 4280484097
0.018245716 0.11948001 0.61800003 4280090881
0.019422859 0.11948001 0.61800003 4279894273
0.020600002 0.11948001 0.61800003 4279697673
0.021777144 0.11948001 0.61800003 4279435537
0.022954287 0.11948001 0.61800003 4279173404
0.02413143 0.11948001 0.61800003 4279828775
0.025308574 0.11948001 0.61800003 4280484413
0.026485717 0.11948001 0.61800003 4280156755
0.027707621 0.11967334 0.61900002 4279828785
0.028886668 0.11967334 0.61900002 4279697679
0.030065717 0.11967334 0.61900002 4279566606
0.03129524 0.11986668 0.62 4279304460
0.032476194 0.11986668 0.62 4279107868
0.033657145 0.11986668 0.62 4279173420
0.034838099 0.11986668 0.62 4279304471
0.036135241 0.12025334 0.62200004 4279107841
0.037320003 0.12025334 0.62200004 4278976769
0.038504764 0.12025334 0.62200004 4278976769
0.039753336 0.12044667 0.62300003 4279042305
0.040940002 0.12044667 0.62300003 4278845697
0.04212667 0.12044667 0.62300003 4278714648
0.043452382 0.12083334 0.625 4278714671
0.044785716 0.12122001 0.62700003 4278780184
0.046126671 0.12160668 0.62900001 4278518017
0.047475241 0.12199334 0.63100004 4278321409
0.04875429 0.12218668 0.63200003 4278321409
0.050037146 0.12238001 0.63300002 4278321409
0.051323812 0.12257334 0.634 4278321409
0.052531432 0.12257334 0.634 4278321409
0.053823814 0.12276667 0.63500005 4278518017
0.055120002 0.12296001 0.63600004 4278649089
-0.0030190479 0.12378096 0.634 4279369985
-0.0018085715 0.12358572 0.63300002 4278976769
-0.00060095242 0.12319525 0.63100004 4278583553
0.00059904763 0.12280477 0.62900001 4278976769
0.0017942858 0.12260953 0.62800002 4279304449
0.0029857145 0.12241429 0.62700003 4279828737
0.0041800002 0.12241429 0.62700003 4280353025
0.0053657144 0.12221906 0.62600005 4280090881
0.0065476196 0.12202382 0.625 4279828758
0.0077380957 0.12202382 0.625 4285727019
0.0089285718 0.12202382 0.625 4291645288
0.010102858 0.12182858 0.62400001 4291865252
0.011291429 0.12182858 0.62400001 4291977555
0.012460001 0.12163334 0.62300003 4287299841
0.013624763 0.1214381 0.62200004 4282581250
0.014761906 0.12104762 0.62 4281532674
0.015942859 0.12104762 0.62 4280484098
0.017096192 0.12085239 0.61900002 4280418561
0.018275239 0.12085239 0.61900002 4280287496
0.019454287 0.12085239 0.61900002 4280090895
0.020633334 0.12085239 0.61900002 4279828748
0.021812383 0.12085239 0.61900002 4279697673
0.022954287 0.12065715 0.61800003 4279566607
0.024170477 0.12085239 0.61900002 4279697686
0.025349526 0.12085239 0.61900002 4279828769
0.026528573 0.12085239 0.61900002 4279763244
0.027707621 0.12085239 0.61900002 4279697690
0.028933335 0.12104762 0.62 4279632136
0.030114288 0.12104762 0.62 4279566599
0.03129524 0.12104762 0.62 4279304455
0.032476194 0.12104762 0.62 4279042319
0.033657145 0.12104762 0.62 4279042327
0.03495048 0.1214381 0.62200004 4278976780
0.036135241 0.1214381 0.62200004 4278976769
0.037320003 0.1214381 0.62200004 4278911233
0.038504764 0.1214381 0.62200004 4279042305
0.039689526 0.1214381 0.62200004 4279173377
0.040940002 0.12163334 0.62300003 4278976770
0.04212667 0.12163334 0.62300003 4278714637
0.043452382 0.12202382 0.625 4278911257
0.044857144 0.12260953 0.62800002 4279107853
0.046273336 0.12319525 0.63100004 4278714625
0.047550481 0.12339048 0.63200003 4278321409
0.048831433 0.12358572 0.63300002 4278321409
0.050116193 0.12378096 0.634 4278321409
0.051323812 0.12378096 0.634 4278321409
0.052531432 0.12378096 0.634 4278321409
0.053823814 0.1239762 0.63500005 4278452481
0.055033337 0.1239762 0.63500005 4278583812
-0.0018114287 0.12498858 0.634 4279042305
-0.00060190482 0.12459429 0.63200003 4278714625
0.00060095242 0.12439715 0.63100004 4278911233
0.001797143 0.12400287 0.62900001 4279107841
0.0029904763 0.12380572 0.62800002 4279501057
0.0041800002 0.12360858 0.62700003 4279959809
0.0053657144 0.12341144 0.62600005 4279763201
0.0065476196 0.1232143 0.625 4279566593
0.0077380957 0.1232143 0.625 4282387457
0.0089285718 0.1232143 0.625 4285279577
0.010119048 0.1232143 0.625 4285420208
0.011291429 0.12301715 0.62400001 4285558361
0.012480001 0.12301715 0.62400001 4283177985
0.013646668 0.12282 0.62300003 4280877313
0.014809525 0.12262286 0.62200004 4280484097
0.015942859 0.12222858 0.62 4280090881
0.017096192 0.12203144 0.61900002 4279959809
0.018275239 0.12203144 0.61900002 4279828751
0.019454287 0.12203144 0.61900002 4279632156
0.020633334 0.12203144 0.61900002 4279435535
0.021812383 0.12203144 0.61900002 4279369985
0.02299143 0.12203144 0.61900002 4279304451
0.024170477 0.12203144 0.61900002 4279369988
0.025349526 0.12203144 0.61900002 4279435525
0.026528573 0.12203144 0.61900002 4279369989
0.027707621 0.12203144 0.61900002 4279304451
0.028933335 0.12222858 0.62 4279238913
0.030114288 0.12222858 0.62 4279238913
0.03129524 0.12222858 0.62 4279042305
0.032476194 0.12222858 0.62 4278845697
0.033765718 0.12262286 0.62200004 4278714625
0.03495048 0.12262286 0.62200004 4278649089
0.036193337 0.12282 0.62300003 4278649089
0.037380002 0.12282 0.62300003 4278649089
0.038566668 0.12282 0.62300003 4278714625
0.039753336 0.12282 0.62300003 4278845698
0.040940002 0.12282 0.62300003 4278714626
0.04212667 0.12282 0.62300003 4278649090
0.043521907 0.12341144 0.62600005 4278714626
0.044857144 0.12380572 0.62800002 4278780162
0.046346668 0.12459429 0.63200003 4278518017
0.047550481 0.12459429 0.63200003 4278321409
0.048831433 0.12479144 0.63300002 4278321409
0.050116193 0.12498858 0.634 4278321409
0.051323812 0.12498858 0.634 4278321409
0.05261429 0.12518573 0.63500005 4278321409
0.053823814 0.12518573 0.63500005 4278452481
0.055033337 0.12518573 0.63500005 4278583560
-0.0030285716 0.12659429 0.63600004 4279369985
-0.0018142859 0.12639524 0.63500005 4279107841
-0.00060285721 0.12599716 0.63300002 4278845697
0.00060190482 0.12579811 0.63200003 4278911233
0.0018028573 0.12559906 0.63100004 4278911233
0.0029952384 0.12520096 0.62900001 4279238913
0.0041800002 0.12480287 0.62700003 4279501057
0.0053742859 0.12480287 0.62700003 4279369985
0.0065580956 0.12460382 0.62600005 4279238913
0.0077380957 0.12440477 0.625 4279042305
0.0089285718 0.12440477 0.625 4278848557
0.010119048 0.12440477 0.625 4278976857
0.011291429 0.12420572 0.62400001 4279114797
0.012480001 0.12420572 0.62400001 4279107841
0.013646668 0.12400667 0.62300003 4279107841
0.014809525 0.12380762 0.62200004 4279369985
0.015942859 0.12340953 0.62 4279632129
0.017096192 0.12321048 0.61900002 4279501057
0.018275239 0.12321048 0.61900002 4279369992
0.019454287 0.12321048 0.61900002 4279173391
0.020633334 0.12321048 0.61900002 4278976776
0.021812383 0.12321048 0.61900002 4278976769
0.02299143 0.12321048 0.61900002 4278976772
0.024170477 0.12321048 0.61900002 4278976775
0.025349526 0.12321048 0.61900002 4278976774
0.026528573 0.12321048 0.61900002 4278911237
0.027707621 0.12321048 0.61900002 4278845699
0.028933335 0.12340953 0.62 4278911233
0.030114288 0.12340953 0.62 4278911233
0.03129524 0.12340953 0.62 4278780161
0.032476194 0.12340953 0.62 4278583553
0.033765718 0.12380762 0.62200004 4278452481
0.03495048 0.12380762 0.62200004 4278321409
0.036193337 0.12400667 0.62300003 4278321409
0.037380002 0.12400667 0.62300003 4278321410
0.038566668 0.12400667 0.62300003 4278452483
0.039753336 0.12400667 0.62300003 4278518018
0.041005716 0.12420572 0.62400001 4278518018
0.042194288 0.12420572 0.62400001 4278518018
0.043521907 0.12460382 0.62600005 4278452482
0.044928573 0.12520096 0.62900001 4278386945
0.046346668 0.12579811 0.63200003 4278321409
0.047625717 0.12599716 0.63300002 4278255873
0.048831433 0.12599716 0.63300002 4278321409
0.050116193 0.12619621 0.634 4278321409
0.051404767 0.12639524 0.63500005 4278321409
0.05261429 0.12639524 0.63500005 4278321409
0.053823814 0.12639524 0.63500005 4278452481
-0.0030380955 0.12820762 0.63800001 4279763201
-0.0018142859 0.12760477 0.63500005 4279304449
-0.00060380955 0.12740381 0.634 4278845697
0.00060285721 0.12720287 0.63300002 4278845697
0.0018057144 0.12700191 0.63200003 4278911233
0.0030047621 0.12680095 0.63100004 4279107841
0.004186667 0.1261981 0.62800002 4279238913
0.0053828573 0.1261981 0.62800002 4279304449
0.0065580956 0.1257962 0.62600005 4279304449
0.0077380957 0.12559524 0.625 4279173377
0.0089285718 0.12559524 0.625 4279107841
0.010119048 0.12559524 0.625 4279173377
0.011309525 0.12559524 0.625 4279238913
0.012480001 0.1253943 0.62400001 4279107841
0.013646668 0.12519334 0.62300003 4279042305
0.014809525 0.12499239 0.62200004 4279107841
0.015942859 0.12459049 0.62 4279238913
0.017123811 0.12459049 0.62 4279173377
0.018275239 0.12438953 0.61900002 4279173377
0.019454287 0.12438953 0.61900002 4278976769
0.020633334 0.12438953 0.61900002 4278780161
0.021812383 0.12438953 0.61900002 4278714625
0.02299143 0.12438953 0.61900002 4278649094
0.024170477 0.12438953 0.61900002 4278714634
0.025349526 0.12438953 0.61900002 4278845703
0.026528573 0.12438953 0.61900002 4278780164
0.027707621 0.12438953 0.61900002 4278714627
0.028886668 0.12438953 0.61900002 4278780161
0.030114288 0.12459049 0.62 4278780161
0.03129524 0.12459049 0.62 4278649089
0.032476194 0.12459049 0.62 4278518017
0.033765718 0.12499239 0.62200004 4278518017
0.03495048 0.12499239 0.62200004 4278452481
0.036193337 0.12519334 0.62300003 4278386945
0.037380002 0.12519334 0.62300003 4278386947
0.038566668 0.12519334 0.62300003 4278386948
0.039753336 0.12519334 0.62300003 4278452483
0.041005716 0.1253943 0.62400001 4278452481
0.042261906 0.12559524 0.625 4278518017
0.043521907 0.1257962 0.62600005 4278452481
0.044928573 0.12639906 0.62900001 4278386945
0.046346668 0.12700191 0.63200003 4278452481
0.047550481 0.12700191 0.63200003 4278518017
0.048831433 0.12720287 0.63300002 4278452481
0.050116193 0.12740381 0.634 4278321409
0.051404767 0.12760477 0.63500005 4278321409
0.05261429 0.12760477 0.63500005 4278321409
0.053823814 0.12760477 0.63500005 4278386945
-0.0030380955 0.12942286 0.63800001 4280156674
-0.0018142859 0.12881429 0.63500005 4279501057
-0.00060380955 0.12861143 0.634 4278780161
0.00060285721 0.12840858 0.63300002 4278845697
0.0018057144 0.12820572 0.63200003 4278911233
0.0030047621 0.12800287 0.63100004 4278976769
0.0041933334 0.12759715 0.62900001 4278976769
0.0053828573 0.12739429 0.62800002 4279173377
0.0065580956 0.12698857 0.62600005 4279369985
0.0077504767 0.12698857 0.62600005 4279369985
0.0089285718 0.12678573 0.625 4279304449
0.010119048 0.12678573 0.625 4279304449
0.011309525 0.12678573 0.625 4279304449
0.012480001 0.12658286 0.62400001 4279107841
0.013646668 0.12638001 0.62300003 4278911233
0.014809525 0.12617715 0.62200004 4278911233
0.015942859 0.12577143 0.62 4278845697
0.017123811 0.12577143 0.62 4278911233
0.018304763 0.12577143 0.62 4278911233
0.019485716 0.12577143 0.62 4278714625
0.020633334 0.12556858 0.61900002 4278518017
0.021812383 0.12556858 0.61900002 4278452481
0.02299143 0.12556858 0.61900002 4278321413
0.024170477 0.12556858 0.61900002 4278518026
0.025349526 0.12556858 0.61900002 4278649095
0.026528573 0.12556858 0.61900002 4278649092
0.027707621 0.12556858 0.61900002 4278583555
0.028886668 0.12556858 0.61900002 4278649089
0.030114288 0.12577143 0.62 4278649345
0.031396192 0.12617715 0.62200004 4278583553
0.032476194 0.12577143 0.62 4278452745
0.033765718 0.12617715 0.62200004 4278518033
0.035006668 0.12638001 0.62300003 4278583561
0.036193337 0.12638001 0.62300003 4278518017
0.037440002 0.12658286 0.62400001 4278386946
0.038628574 0.12658286 0.62400001 4278386947
0.039817147 0.12658286 0.62400001 4278386946
0.04107143 0.12678573 0.625 4278452737
0.042329527 0.12698857 0.62600005 4278452484
0.043591432 0.12719144 0.62700003 4278386951
0.044928573 0.12759715 0.62900001 4278321412
0.046346668 0.12820572 0.63200003 4278583553
0.047550481 0.12820572 0.63200003 4278780161
0.048831433 0.12840858 0.63300002 4278583553
0.050116193 0.12861143 0.634 4278321409
0.051404767 0.12881429 0.63500005 4278321409
0.05261429 0.12881429 0.63500005 4278321409
0.053908575 0.12901714 0.63600004 4278321409
-0.0018171429 0.13022858 0.63600004 4279304449
-0.00060380955 0.12981905 0.634 4278780161
0.00060380955 0.12981905 0.634 4278714625
0.0018085715 0.12961429 0.63300002 4278714625
0.003009524 0.12940954 0.63200003 4278780161
0.0041933334 0.12879525 0.62900001 4278911233
0.0053828573 0.12859048 0.62800002 4278976769
0.006568572 0.12838572 0.62700003 4279042305
0.0077504767 0.12818097 0.62600005 4279107841
0.0089285718 0.12797619 0.625 4279107841
0.010119048 0.12797619 0.625 4279107841
0.011309525 0.12797619 0.625 4279107841
0.012480001 0.12777144 0.62400001 4278911233
0.013646668 0.12756668 0.62300003 4278780161
0.014833334 0.12756668 0.62300003 4278714625
0.015942859 0.12695239 0.62 4278714625
0.017123811 0.12695239 0.62 4278714625
0.018304763 0.12695239 0.62 4278780161
0.019485716 0.12695239 0.62 4278649089
0.020666668 0.12695239 0.62 4278518017
0.021847621 0.12695239 0.62 4278518017
0.02299143 0.12674762 0.61900002 4278518021
0.024170477 0.12674762 0.61900002 4278518025
0.025349526 0.12674762 0.61900002 4278583559
0.026528573 0.12674762 0.61900002 4278583556
0.027707621 0.12674762 0.61900002 4278583555
0.028933335 0.12695239 0.62 4278583809
0.030114288 0.12695239 0.62 4278584065
0.031396192 0.12736191 0.62200004 4278518273
0.032580953 0.12736191 0.62200004 4278453009
0.033820003 0.12756668 0.62300003 4278649377
0.035006668 0.12756668 0.62300003 4278911249
0.036251429 0.12777144 0.62400001 4278583553
0.037440002 0.12777144 0.62400001 4278321665
0.038628574 0.12777144 0.62400001 4278321409
0.039817147 0.12777144 0.62400001 4278386945
0.04107143 0.12797619 0.625 4278386945
0.042329527 0.12818097 0.62600005 4278452487
0.043591432 0.12838572 0.62700003 4278387469
0.044928573 0.12879525 0.62900001 4278321415
0.046346668 0.12940954 0.63200003 4278452737
0.047550481 0.12940954 0.63200003 4278583809
0.048831433 0.12961429 0.63300002 4278452481
0.050116193 0.12981905 0.634 4278321409
0.051404767 0.13002382 0.63500005 4278321409
0.05261429 0.13002382 0.63500005 4278386945
0.053823814 0.13002382 0.63500005 4278321409
-0.0018257144 0.13206001 0.63900006 4279173377
-0.00060476194 0.13123333 0.63500005 4278714625
0.00060380955 0.13102667 0.634 4278583554
0.0018085715 0.13082001 0.63300002 4278452482
0.0030142858 0.13082001 0.63300002 4278649090
0.0042066667 0.13040668 0.63100004 4278845698
0.0053914287 0.12999335 0.62900001 4278780161
0.006568572 0.12958001 0.62700003 4278714625
0.0077504767 0.12937334 0.62600005 4278845697
0.0089428574 0.12937334 0.62600005 4278911233
0.010119048 0.12916668 0.625 4278911233
0.011309525 0.12916668 0.625 4278911233
0.012480001 0.12896001 0.62400001 4278780161
0.013668573 0.12896001 0.62400001 4278583553
0.014833334 0.12875335 0.62300003 4278583553
0.015994286 0.12854667 0.62200004 4278518017
0.017123811 0.12813334 0.62 4278583553
0.018304763 0.12813334 0.62 4278583553
0.019485716 0.12813334 0.62 4278583553
0.020666668 0.12813334 0.62 4278518017
0.021847621 0.12813334 0.62 4278583553
0.023028573 0.12813334 0.62 4278649094
0.024209525 0.12813334 0.62 4278583564
0.025390478 0.12813334 0.62 4278452744
0.02657143 0.12813334 0.62 4278518277
0.027752383 0.12813334 0.62 4278518275
0.028933335 0.12813334 0.62 4278518273
0.030114288 0.12813334 0.62 4278452737
0.031396192 0.12854667 0.62200004 4278452481
0.032580953 0.12854667 0.62200004 4278452745
0.033820003 0.12875335 0.62300003 4278845713
0.035062861 0.12896001 0.62400001 4279173385
0.036251429 0.12896001 0.62400001 4278714625
0.037500001 0.12916668 0.625 4278255876
0.038690478 0.12916668 0.625 4278321415
0.039880954 0.12916668 0.625 4278321412
0.041137144 0.12937334 0.62600005 4278386945
0.042329527 0.12937334 0.62600005 4278387461
0.043591432 0.12958001 0.62700003 4278388488
0.044928573 0.12999335 0.62900001 4278321925
0.046273336 0.13040668 0.63100004 4278321666
0.047625717 0.13082001 0.63300002 4278321666
0.048908576 0.13102667 0.634 4278321409
0.050195243 0.13123333 0.63500005 4278321409
0.051485717 0.13144001 0.63600004 4278386945
0.05286286 0.13185334 0.63800001 4278386945
0.054078098 0.13185334 0.63800001 4278321409
-0.0030428574 0.13327715 0.63900006 4279501062
-0.0018257144 0.13327715 0.63900006 4279304449
-0.00060476194 0.13244286 0.63500005 4279173378
0.00060380955 0.13223429 0.634 4278977026
0.0018085715 0.13202572 0.63300002 4278780163
0.0030142858 0.13202572 0.63300002 4278976771
0.0042066667 0.13160858 0.63100004 4279238914
0.0053914287 0.13119143 0.62900001 4278976769
0.006579048 0.13098286 0.62800002 4278780161
0.0077628577 0.13077429 0.62700003 4278845697
0.0089571439 0.13077429 0.62700003 4278911233
0.010135239 0.13056572 0.62600005 4278911233
0.01132762 0.13056572 0.62600005 4278911233
0.012500001 0.13035715 0.625 4278780161
0.013668573 0.13014857 0.62400001 4278583553
0.014857144 0.13014857 0.62400001 4278518017
0.016020002 0.12994 0.62300003 4278452481
0.017206667 0.12994 0.62300003 4278583553
0.018363811 0.12973143 0.62200004 4278714625
0.019548573 0.12973143 0.62200004 4278780161
0.020733334 0.12973143 0.62200004 4278780161
0.021918098 0.12973143 0.62200004 4278780417
0.023102859 0.12973143 0.62200004 4278845960
0.024287621 0.12973143 0.62200004 4278649358
0.025472382 0.12973143 0.62200004 4278452746
0.026657145 0.12973143 0.62200004 4278452741
0.027841907 0.12973143 0.62200004 4278452483
0.029026669 0.12973143 0.62200004 4278386945
0.030260002 0.12994 0.62300003 4278386945
0.031446669 0.12994 0.62300003 4278386945
0.032685716 0.13014857 0.62400001 4278452481
0.033874288 0.13014857 0.62400001 4278583553
0.035119049 0.13035715 0.625 4278780161
0.036309525 0.13035715 0.625 4278518017
0.037500001 0.13035715 0.625 4278321415
0.038752384 0.13056572 0.62600005 4278321421
0.039944764 0.13056572 0.62600005 4278321415
0.041202858 0.13077429 0.62700003 4278321409
0.042397145 0.13077429 0.62700003 4278386946
0.043591432 0.13077429 0.62700003 4278321923
0.044928573 0.13119143 0.62900001 4278321411
0.046273336 0.13160858 0.63100004 4278321411
0.047700956 0.13223429 0.634 4278321410
0.049062859 0.13265143 0.63600004 4278321409
0.05027429 0.13265143 0.63600004 4278321409
0.051647622 0.13306858 0.63800001 4278321409
0.052945718 0.13327715 0.63900006 4278321409
0.05416286 0.13327715 0.63900006 4278321409
-0.0030428574 0.13449429 0.63900006 4279370251
-0.0018257144 0.13449429 0.63900006 4279501071
-0.00060571433 0.13386287 0.63600004 4279566859
0.00060380955 0.13344191 0.634 4279370759
0.0018085715 0.13323143 0.63300002 4279108357
0.0030142858 0.13323143 0.63300002 4279369988
0.0042066667 0.13281049 0.63100004 4279566851
0.0053914287 0.13238953 0.62900001 4279238913
0.006579048 0.13217905 0.62800002 4278845697
0.0077752387 0.13217905 0.62800002 4278911233
0.0089571439 0.13196857 0.62700003 4278911233
0.010151429 0.13196857 0.62700003 4278911233
0.01132762 0.13175811 0.62600005 4278911233
0.012500001 0.13154763 0.625 4278780161
0.013668573 0.13133715 0.62400001 4278583553
0.014857144 0.13133715 0.62400001 4278452481
0.016020002 0.13112667 0.62300003 4278321409
0.017206667 0.13112667 0.62300003 4278583553
0.018363811 0.13091619 0.62200004 4278845697
0.019548573 0.13091619 0.62200004 4278976770
0.020733334 0.13091619 0.62200004 4279042562
0.021847621 0.13049525 0.62 4279042562
0.023102859 0.13091619 0.62200004 4278977029
0.024287621 0.13091619 0.62200004 4278714888
0.025472382 0.13091619 0.62200004 4278452742
0.026657145 0.13091619 0.62200004 4278386948
0.027886668 0.13112667 0.62300003 4278321410
0.029073335 0.13112667 0.62300003 4278321409
0.030260002 0.13112667 0.62300003 4278321409
0.031497143 0.13133715 0.62400001 4278386945
0.032685716 0.13133715 0.62400001 4278386946
0.033874288 0.13133715 0.62400001 4278386947
0.035119049 0.13154763 0.625 4278386946
0.036309525 0.13154763 0.625 4278386945
0.037560001 0.13175811 0.62600005 4278321412
0.038752384 0.13175811 0.62600005 4278321415
0.039944764 0.13175811 0.62600005 4278321412
0.041202858 0.13196857 0.62700003 4278321409
0.042397145 0.13196857 0.62700003 4278321410
0.043660954 0.13217905 0.62800002 4278321411
0.044928573 0.13238953 0.62900001 4278321411
0.046346668 0.13302097 0.63200003 4278321410
0.047700956 0.13344191 0.634 4278321666
0.049062859 0.13386287 0.63600004 4278321409
0.05027429 0.13386287 0.63600004 4278321409
0.051647622 0.13428383 0.63800001 4278321409
0.052945718 0.13449429 0.63900006 4278255873
0.05416286 0.13449429 0.63900006 4278321409
0.055380005 0.13449429 0.63900006 4278321409
-0.0018257144 0.13571143 0.63900006 4279829020
-0.00060571433 0.13507429 0.63600004 4280156692
0.00060380955 0.13464953 0.634 4279829515
0.0018085715 0.13443716 0.63300002 4279437064
0.003009524 0.13422477 0.63200003 4279961093
0.0042066667 0.13401239 0.63100004 4280485123
0.0053914287 0.13358763 0.62900001 4279763713
0.006579048 0.13337524 0.62800002 4279042305
0.0077752387 0.13337524 0.62800002 4279107841
0.0089571439 0.13316287 0.62700003 4279238913
0.010151429 0.13316287 0.62700003 4279173377
0.011345715 0.13316287 0.62700003 4279173377
0.012520001 0.13295048 0.62600005 4278911233
0.013690477 0.1327381 0.625 4278649089
0.014857144 0.13252573 0.62400001 4278649089
0.016045716 0.13252573 0.62400001 4278649089
0.017206667 0.13231334 0.62300003 4278780161
0.018393334 0.13231334 0.62300003 4278976770
0.019548573 0.13210095 0.62200004 4279108098
0.020733334 0.13210095 0.62200004 4279239170
0.021847621 0.1316762 0.62 4278977026
0.023102859 0.13210095 0.62200004 4278715138
0.024287621 0.13210095 0.62200004 4278583809
0.025513334 0.13231334 0.62300003 4278518018
0.026700001 0.13231334 0.62300003 4278452482
0.027886668 0.13231334 0.62300003 4278386946
0.029073335 0.13231334 0.62300003 4278321409
0.030308573 0.13252573 0.62400001 4278321409
0.031497143 0.13252573 0.62400001 4278386945
0.032685716 0.13252573 0.62400001 4278518019
0.033928573 0.1327381 0.625 4278452485
0.035119049 0.1327381 0.625 4278386947
0.036309525 0.1327381 0.625 4278321409
0.037560001 0.13295048 0.62600005 4278321409
0.038752384 0.13295048 0.62600005 4278321409
0.040008575 0.13316287 0.62700003 4278321409
0.041202858 0.13316287 0.62700003 4278321409
0.042397145 0.13316287 0.62700003 4278321410
0.043660954 0.13337524 0.62800002 4278321411
0.044928573 0.13358763 0.62900001 4278321410
0.046346668 0.13422477 0.63200003 4278321665
0.047776192 0.13486192 0.63500005 4278387457
0.049217146 0.13549906 0.63800001 4278387201
0.050432384 0.13549906 0.63800001 4278452481
0.051728576 0.13571143 0.63900006 4278386945
0.052945718 0.13571143 0.63900006 4278321409
0.05416286 0.13571143 0.63900006 4278321409
-0.0018257144 0.13692857 0.63900006 4280156943
-0.00060476194 0.13607144 0.63500005 4280746762
0.00060380955 0.13585715 0.634 4280287750
0.0018085715 0.13564287 0.63300002 4279764239
0.0030047621 0.1352143 0.63100004 4280552215
0.0041933334 0.13478573 0.62900001 4281337613
0.0053914287 0.13478573 0.62900001 4280288002
0.006579048 0.13457143 0.62800002 4279173634
0.0077752387 0.13457143 0.62800002 4279369986
0.0089714294 0.13457143 0.62800002 4279501067
0.010151429 0.13435715 0.62700003 4279435540
0.011345715 0.13435715 0.62700003 4279369995
0.012520001 0.13414286 0.62600005 4279042305
0.013690477 0.13392858 0.625 4278714625
0.014880953 0.13392858 0.625 4278845697
0.016045716 0.13371429 0.62400001 4278977030
0.017234286 0.13371429 0.62400001 4279042315
0.018393334 0.13350001 0.62300003 4279042567
0.019580001 0.13350001 0.62300003 4279239171
0.020733334 0.13328572 0.62200004 4279435778
0.021918098 0.13328572 0.62200004 4278977026
0.023140002 0.13350001 0.62300003 4278452737
0.024326669 0.13350001 0.62300003 4278518017
0.025513334 0.13350001 0.62300003 4278518026
0.026700001 0.13350001 0.62300003 4278452498
0.027931431 0.13371429 0.62400001 4278386954
0.029120002 0.13371429 0.62400001 4278386946
0.030308573 0.13371429 0.62400001 4278321410
0.031497143 0.13371429 0.62400001 4278452481
0.032685716 0.13371429 0.62400001 4278583555
0.033928573 0.13392858 0.625 4278452740
0.035119049 0.13392858 0.625 4278321411
0.036309525 0.13392858 0.625 4278321409
0.037560001 0.13414286 0.62600005 4278321409
0.038814288 0.13435715 0.62700003 4278321409
0.040008575 0.13435715 0.62700003 4278321409
0.041202858 0.13435715 0.62700003 4278321409
0.042464763 0.13457143 0.62800002 4278255874
0.043660954 0.13457143 0.62800002 4278321411
0.045071431 0.1352143 0.63100004 4278321667
0.046420004 0.13564287 0.63300002 4278387460
0.047776192 0.13607144 0.63500005 4278387202
0.049217146 0.13671429 0.63800001 4278518017
0.050511431 0.13692857 0.63900006 4278583553
0.051728576 0.13692857 0.63900006 4278452481
0.052945718 0.13692857 0.63900006 4278321409
0.054247621 0.13714287 0.64000005 4278321409
-0.0018257144 0.13814573 0.63900006 4279829249
-0.00060476194 0.13728096 0.63500005 4280026113
0.00060380955 0.13706477 0.634 4279828993
0.0018085715 0.13684858 0.63300002 4279632149
0.003009524 0.13663238 0.63200003 4280026921
0.0042066667 0.1364162 0.63100004 4280420374
0.0053914287 0.13598382 0.62900001 4279632899
0.0065895244 0.13598382 0.62900001 4278780419
0.0077752387 0.13576762 0.62800002 4279239171
0.0089714294 0.13576762 0.62800002 4279632149
0.010151429 0.13555144 0.62700003 4279763751
0.011345715 0.13555144 0.62700003 4279894548
0.012520001 0.13533525 0.62600005 4279239169
0.013712382 0.13533525 0.62600005 4278583553
0.014880953 0.13511905 0.625 4278911745
0.016071429 0.13511905 0.625 4279305227
0.017234286 0.13490286 0.62400001 4279174165
0.018422859 0.13490286 0.62400001 4279108621
0.019580001 0.13468668 0.62300003 4279173892
0.020766668 0.13468668 0.62300003 4279239427
0.021953335 0.13468668 0.62300003 4278780417
0.023177145 0.13490286 0.62400001 4278386945
0.024365716 0.13490286 0.62400001 4278386945
0.025554288 0.13490286 0.62400001 4278452498
0.026742859 0.13490286 0.62400001 4278452514
0.027931431 0.13490286 0.62400001 4278386963
0.029120002 0.13490286 0.62400001 4278386947
0.030308573 0.13490286 0.62400001 4278386946
0.031497143 0.13490286 0.62400001 4278386945
0.032738097 0.13511905 0.625 4278452482
0.033928573 0.13511905 0.625 4278386947
0.035175242 0.13533525 0.62600005 4278321410
0.036425717 0.13555144 0.62700003 4278321409
0.037620004 0.13555144 0.62700003 4278321409
0.038814288 0.13555144 0.62700003 4278321409
0.040008575 0.13555144 0.62700003 4278321409
0.041268576 0.13576762 0.62800002 4278321409
0.042464763 0.13576762 0.62800002 4278255874
0.043730479 0.13598382 0.62900001 4278321410
0.045071431 0.1364162 0.63100004 4278386948
0.046420004 0.13684858 0.63300002 4278387206
0.047776192 0.13728096 0.63500005 4278386948
0.049217146 0.13792953 0.63800001 4278386945
0.050511431 0.13814573 0.63900006 4278452481
0.051728576 0.13814573 0.63900006 4278386945
0.053028576 0.13836192 0.64000005 4278321409
0.054247621 0.13836192 0.64000005 4278321409
-0.0018257144 0.13936287 0.63900006 4279435522
-0.00060476194 0.13849048 0.63500005 4279304706
0.00060380955 0.13827239 0.634 4279435522
0.0018085715 0.1380543 0.63300002 4279501836
0.0030142858 0.1380543 0.63300002 4279503127
0.0042066667 0.13761811 0.63100004 4279502861
0.0053914287 0.13718191 0.62900001 4278977538
0.0065895244 0.13718191 0.62900001 4278387458
0.0077876197 0.13718191 0.62900001 4279108355
0.0089714294 0.13696381 0.62800002 4279763980
0.01016762 0.13696381 0.62800002 4280092949
0.011345715 0.13674572 0.62700003 4280419339
0.01254 0.13674572 0.62700003 4279435777
0.013712382 0.13652763 0.62600005 4278452737
0.014880953 0.13630953 0.625 4279043073
0.016071429 0.13630953 0.625 4279567878
0.017261906 0.13630953 0.625 4279371787
0.018422859 0.13609144 0.62400001 4279174407
0.019611429 0.13609144 0.62400001 4279108611
0.020800002 0.13609144 0.62400001 4278977026
0.021988573 0.13609144 0.62400001 4278649089
0.023177145 0.13609144 0.62400001 4278255873
0.024365716 0.13609144 0.62400001 4278321409
0.025554288 0.13609144 0.62400001 4278386953
0.026742859 0.13609144 0.62400001 4278386962
0.027931431 0.13609144 0.62400001 4278386954
0.029120002 0.13609144 0.62400001 4278386946
0.030308573 0.13609144 0.62400001 4278386946
0.031547621 0.13630953 0.625 4278387203
0.032738097 0.13630953 0.625 4278321410
0.033982858 0.13652763 0.62600005 4278321410
0.03523143 0.13674572 0.62700003 4278255874
0.036425717 0.13674572 0.62700003 4278255873
0.037620004 0.13674572 0.62700003 4278255873
0.038814288 0.13674572 0.62700003 4278321409
0.040008575 0.13674572 0.62700003 4278321409
0.041268576 0.13696381 0.62800002 4278321409
0.042464763 0.13696381 0.62800002 4278255874
0.043730479 0.13718191 0.62900001 4278321411
0.045071431 0.13761811 0.63100004 4278387205
0.046420004 0.1380543 0.63300002 4278387463
0.047776192 0.13849048 0.63500005 4278321668
0.049217146 0.13914478 0.63800001 4278321409
0.050511431 0.13936287 0.63900006 4278321409
0.051728576 0.13936287 0.63900006 4278321409
0.052945718 0.13936287 0.63900006 4278321409
0.054247621 0.13958097 0.64000005 4278321409
-0.0018285715 0.14080001 0.64000005 4279567107
-0.00060571433 0.13992001 0.63600004 4278911235
0.00060476194 0.13970001 0.63500005 4279174146
0.0018114287 0.13948001 0.634 4279502340
0.0030142858 0.13926001 0.63300002 4279371781
0.0042133336 0.13904001 0.63200003 4279307267
0.0054085716 0.13882001 0.63100004 4278977793
0.0065895244 0.13838001 0.62900001 4278649090
0.0077876197 0.13838001 0.62900001 4279042562
0.0089714294 0.13816001 0.62800002 4279501058
0.01016762 0.13816001 0.62800002 4279763714
0.01136381 0.13816001 0.62800002 4280025346
0.01254 0.13794 0.62700003 4279435777
0.013734287 0.13794 0.62700003 4278911489
0.014904763 0.13772 0.62600005 4279240193
0.016071429 0.1375 0.625 4279502849
0.017261906 0.1375 0.625 4279305729
0.018452382 0.1375 0.625 4279108609
0.019642858 0.1375 0.625 4278911745
0.020833334 0.1375 0.625 4278780161
0.021988573 0.13728 0.62400001 4278583553
0.023214288 0.1375 0.625 4278386945
0.024404764 0.1375 0.625 4278518017
0.025554288 0.13728 0.62400001 4278583553
0.026742859 0.13728 0.62400001 4278518017
0.027931431 0.13728 0.62400001 4278518017
0.029120002 0.13728 0.62400001 4278583553
0.030308573 0.13728 0.62400001 4278714627
0.031547621 0.1375 0.625 4278518020
0.032790478 0.13772 0.62600005 4278386947
0.033982858 0.13772 0.62600005 4278321409
0.03523143 0.13794 0.62700003 4278321409
0.036425717 0.13794 0.62700003 4278321409
0.037620004 0.13794 0.62700003 4278321409
0.038876195 0.13816001 0.62800002 4278321409
0.040072385 0.13816001 0.62800002 4278321409
0.041268576 0.13816001 0.62800002 4278321409
0.042464763 0.13816001 0.62800002 4278321410
0.043730479 0.13838001 0.62900001 4278452483
0.045071431 0.13882001 0.63100004 4278583557
0.046346668 0.13904001 0.63200003 4278452743
0.047700956 0.13948001 0.634 4278321412
0.049217146 0.14036001 0.63800001 4278321409
0.050511431 0.14058001 0.63900006 4278321409
0.051728576 0.14058001 0.63900006 4278321409
0.053028576 0.14080001 0.64000005 4278321409
0.054332383 0.14102001 0.64100003 4278321409
-0.0018314287 0.14224096 0.64100003 4279697666
-0.00060571433 0.14113143 0.63600004 4278452994
0.00060476194 0.14090954 0.63500005 4278978306
0.0018114287 0.14068763 0.634 4279436547
0.0030142858 0.14046572 0.63300002 4279305221
0.0042133336 0.14024381 0.63200003 4279108867
0.0054085716 0.14002192 0.63100004 4278976769
0.0065895244 0.1395781 0.62900001 4278845697
0.0077876197 0.1395781 0.62900001 4279042306
0.0089714294 0.1393562 0.62800002 4279173378
0.01016762 0.1393562 0.62800002 4279369986
0.01136381 0.1393562 0.62800002 4279566852
0.012560001 0.1393562 0.62800002 4279501318
0.013734287 0.13913429 0.62700003 4279371523
0.014904763 0.13891239 0.62600005 4279437313
0.016097143 0.13891239 0.62600005 4279436801
0.017261906 0.13869049 0.625 4279239681
0.018452382 0.13869049 0.625 4278977281
0.019642858 0.13869049 0.625 4278780161
0.020833334 0.13869049 0.625 4278583553
0.02202381 0.13869049 0.625 4278583553
0.023214288 0.13869049 0.625 4278518017
0.024404764 0.13869049 0.625 4278649089
0.02559524 0.13869049 0.625 4278780162
0.026742859 0.13846858 0.62400001 4278714627
0.027931431 0.13846858 0.62400001 4278583554
0.029166669 0.13869049 0.625 4278845697
0.030357145 0.13869049 0.625 4279042306
0.031598099 0.13891239 0.62600005 4278714627
0.03284286 0.13913429 0.62700003 4278386946
0.034037147 0.13913429 0.62700003 4278386945
0.035287622 0.1393562 0.62800002 4278321409
0.036483813 0.1393562 0.62800002 4278321409
0.037680004 0.1393562 0.62800002 4278321409
0.038876195 0.1393562 0.62800002 4278321409
0.040072385 0.1393562 0.62800002 4278321409
0.041268576 0.1393562 0.62800002 4278321409
0.042532384 0.1395781 0.62900001 4278321413
0.043730479 0.1395781 0.62900001 4278583562
0.045071431 0.14002192 0.63100004 4278780169
0.046346668 0.14024381 0.63200003 4278583560
0.047700956 0.14068763 0.634 4278321414
0.049217146 0.14157525 0.63800001 4278321412
0.050511431 0.14179716 0.63900006 4278255875
0.051809527 0.14201906 0.64000005 4278321411
0.05311143 0.14224096 0.64100003 4278321410
0.054417148 0.14246286 0.64200002 4278386945
0.055640005 0.14246286 0.64200002 4278387201
-0.0018314287 0.14346191 0.64100003 4279698433
-0.00060571433 0.14234287 0.63600004 4278976769
0.00060476194 0.14211905 0.63500005 4279240193
0.0018114287 0.14189525 0.634 4279436291
0.0030190479 0.14189525 0.634 4279304964
0.0042200005 0.14167143 0.63300002 4279173379
0.005417143 0.14144763 0.63200003 4278976769
0.0065895244 0.1407762 0.62900001 4278845697
0.0077876197 0.1407762 0.62900001 4279042305
0.0089714294 0.14055239 0.62800002 4279238913
0.01016762 0.14055239 0.62800002 4279370497
0.01136381 0.14055239 0.62800002 4279567622
0.012560001 0.14055239 0.62800002 4279699722
0.013756191 0.14055239 0.62800002 4279897606
0.014928573 0.14032859 0.62700003 4279634177
0.016122859 0.14032859 0.62700003 4279305473
0.017317144 0.14032859 0.62700003 4279042817
0.018481907 0.14010477 0.62600005 4278714625
0.019642858 0.13988096 0.625 4278649089
0.020833334 0.13988096 0.625 4278583553
0.02202381 0.13988096 0.625 4278583553
0.023251429 0.14010477 0.62600005 4278583553
0.024404764 0.13988096 0.625 4278583553
0.02559524 0.13988096 0.625 4278583811
0.026785716 0.13988096 0.625 4278518020
0.027976193 0.13988096 0.625 4278452483
0.029166669 0.13988096 0.625 4278583553
0.030357145 0.13988096 0.625 4278714625
0.031598099 0.14010477 0.62600005 4278518017
0.03284286 0.14032859 0.62700003 4278386945
0.034091432 0.14055239 0.62800002 4278321409
0.035287622 0.14055239 0.62800002 4278321409
0.036483813 0.14055239 0.62800002 4278321409
0.037680004 0.14055239 0.62800002 4278321409
0.038876195 0.14055239 0.62800002 4278321409
0.040072385 0.14055239 0.62800002 4278321409
0.04133429 0.1407762 0.62900001 4278321409
0.042532384 0.1407762 0.62900001 4278321417
0.043869525 0.14122382 0.63100004 4278452496
0.045142859 0.14144763 0.63200003 4278583820
0.046346668 0.14144763 0.63200003 4278452488
0.047700956 0.14189525 0.634 4278321415
0.049217146 0.14279048 0.63800001 4278321414
0.050590478 0.1432381 0.64000005 4278321413
0.051890481 0.14346191 0.64100003 4278321412
0.053194288 0.14368573 0.64200002 4278386947
0.054586671 0.14413334 0.64400005 4278386945
0.055813339 0.14413334 0.64400005 4278321409
-0.0030666669 0.14536001 0.64400005 4280027137
-0.0018285715 0.14445715 0.64000005 4279764225
-0.00060571433 0.1435543 0.63600004 4279502341
0.00060476194 0.14332858 0.63500005 4279503625
0.0018114287 0.14310287 0.634 4279436550
0.0030190479 0.14310287 0.634 4279369987
0.0042200005 0.14287715 0.63300002 4279238914
0.005417143 0.14265144 0.63200003 4279042305
0.0066104764 0.14242573 0.63100004 4278780161
0.0077876197 0.1419743 0.62900001 4279042305
0.008985715 0.1419743 0.62900001 4279304705
0.01016762 0.14174858 0.62800002 4279436034
0.01136381 0.14174858 0.62800002 4279503364
0.012560001 0.14174858 0.62800002 4279963654
0.013756191 0.14174858 0.62800002 4280421123
0.014928573 0.14152287 0.62700003 4279830529
0.016122859 0.14152287 0.62700003 4279174145
0.017317144 0.14152287 0.62700003 4278845697
0.018481907 0.14129715 0.62600005 4278452481
0.019674286 0.14129715 0.62600005 4278518017
0.020866668 0.14129715 0.62600005 4278518017
0.022059049 0.14129715 0.62600005 4278583553
0.023251429 0.14129715 0.62600005 4278583553
0.024404764 0.14107144 0.625 4278518017
0.02559524 0.14107144 0.625 4278386946
0.026785716 0.14107144 0.625 4278386948
0.027976193 0.14107144 0.625 4278321410
0.029166669 0.14107144 0.625 4278321409
0.030357145 0.14107144 0.625 4278321409
0.031648573 0.14152287 0.62700003 4278321409
0.03284286 0.14152287 0.62700003 4278321409
0.034091432 0.14174858 0.62800002 4278321409
0.035287622 0.14174858 0.62800002 4278321409
0.036483813 0.14174858 0.62800002 4278321409
0.037680004 0.14174858 0.62800002 4278321409
0.038876195 0.14174858 0.62800002 4278321409
0.040072385 0.14174858 0.62800002 4278321409
0.04133429 0.1419743 0.62900001 4278321409
0.042532384 0.1419743 0.62900001 4278256133
0.043869525 0.14242573 0.63100004 4278321417
0.045142859 0.14265144 0.63200003 4278321415
0.046420004 0.14287715 0.63300002 4278321413
0.047700956 0.14310287 0.634 4278321420
0.049217146 0.14400573 0.63800001 4278321428
0.050669529 0.14468287 0.64100003 4278321419
0.051971432 0.14490858 0.64200002 4278386947
0.053360004 0.14536001 0.64400005 4278452482
0.054586671 0.14536001 0.64400005 4278386945
0.055813339 0.14536001 0.64400005 4278255873
-0.0018342858 0.14613144 0.64200002 4279961089
-0.00060761906 0.14522097 0.63800001 4279830537
0.00060571433 0.14476572 0.63600004 4279699728
0.0018142859 0.1445381 0.63500005 4279632649
0.0030238098 0.1445381 0.63500005 4279436033
0.0042266669 0.14431049 0.634 4279173633
0.0054257144 0.14408286 0.63300002 4278977025
0.0066314288 0.14408286 0.63300002 4278845697
0.0078247627 0.14385524 0.63200003 4279042305
0.0090142861 0.14362763 0.63100004 4279238914
0.01018381 0.14317238 0.62900001 4279502594
0.011381906 0.14317238 0.62900001 4279701250
0.012580001 0.14317238 0.62900001 4279831809
0.013756191 0.14294477 0.62800002 4279961345
0.014952382 0.14294477 0.62800002 4279436545
0.016148573 0.14294477 0.62800002 4278976769
0.017344764 0.14294477 0.62800002 4278649089
0.018511429 0.14271715 0.62700003 4278386945
0.019705715 0.14271715 0.62700003 4278518017
0.020900002 0.14271715 0.62700003 4278583553
0.022059049 0.14248954 0.62600005 4278583553
0.023251429 0.14248954 0.62600005 4278649089
0.024404764 0.14226191 0.625 4278518017
0.02559524 0.14226191 0.625 4278386946
0.026828574 0.14248954 0.62600005 4278321411
0.027976193 0.14226191 0.625 4278321410
0.029213335 0.14248954 0.62600005 4278321409
0.030405717 0.14248954 0.62600005 4278321409
0.031648573 0.14271715 0.62700003 4278321409
0.032895241 0.14294477 0.62800002 4278321409
0.034145717 0.14317238 0.62900001 4278452481
0.035343811 0.14317238 0.62900001 4278583553
0.036541909 0.14317238 0.62900001 4278452481
0.037740003 0.14317238 0.62900001 4278321409
0.038938098 0.14317238 0.62900001 4278321409
0.040136192 0.14317238 0.62900001 4278321409
0.04133429 0.14317238 0.62900001 4278321665
0.042667624 0.14362763 0.63100004 4278321921
0.04393905 0.14385524 0.63200003 4278321665
0.045214288 0.14408286 0.63300002 4278321410
0.046493337 0.14431049 0.634 4278321410
0.047776192 0.1445381 0.63500005 4278321426
0.049217146 0.14522097 0.63800001 4278321441
0.050669529 0.14590383 0.64100003 4278321425
0.052133337 0.14658667 0.64400005 4278386945
0.053442862 0.1468143 0.64500004 4278386945
0.054671433 0.1468143 0.64500004 4278321409
0.055900004 0.1468143 0.64500004 4278321409
-0.0030666669 0.14781335 0.64400005 4280091649
-0.0018342858 0.14735429 0.64200002 4280091137
-0.00060857146 0.14666572 0.63900006 4280092421
0.00060761906 0.1464362 0.63800001 4279962634
0.0018171429 0.14597715 0.63600004 4279830021
0.0030238098 0.14574763 0.63500005 4279502081
0.0042266669 0.14551811 0.634 4279108353
0.0054342858 0.14551811 0.634 4278977025
0.0066314288 0.14528859 0.63300002 4278845697
0.0078371437 0.14528859 0.63300002 4279042305
0.0090142861 0.14482953 0.63100004 4279174146
0.010216191 0.14482953 0.63100004 4279568386
0.011381906 0.14437048 0.62900001 4279897604
0.012580001 0.14437048 0.62900001 4279700485
0.013778096 0.14437048 0.62900001 4279436803
0.014976191 0.14437048 0.62900001 4279108097
0.016148573 0.14414096 0.62800002 4278714625
0.017344764 0.14414096 0.62800002 4278518017
0.018540954 0.14414096 0.62800002 4278321409
0.019705715 0.14391144 0.62700003 4278518017
0.020900002 0.14391144 0.62700003 4278649089
0.022094287 0.14391144 0.62700003 4278649089
0.023251429 0.14368191 0.62600005 4278649089
0.024404764 0.14345239 0.625 4278518017
0.02559524 0.14345239 0.625 4278321410
0.026828574 0.14368191 0.62600005 4278321410
0.028020954 0.14368191 0.62600005 4278321410
0.029213335 0.14368191 0.62600005 4278321409
0.030454287 0.14391144 0.62700003 4278321409
0.03169905 0.14414096 0.62800002 4278321409
0.032895241 0.14414096 0.62800002 4278321411
0.034145717 0.14437048 0.62900001 4278583557
0.035343811 0.14437048 0.62900001 4278780163
0.036541909 0.14437048 0.62900001 4278583553
0.037740003 0.14437048 0.62900001 4278321409
0.038938098 0.14437048 0.62900001 4278321409
0.040136192 0.14437048 0.62900001 4278321409
0.041465718 0.14482953 0.63100004 4278321409
0.042667624 0.14482953 0.63100004 4278321665
0.04393905 0.14505906 0.63200003 4278321665
0.045214288 0.14528859 0.63300002 4278321409
0.046493337 0.14551811 0.634 4278321410
0.047851432 0.14597715 0.63600004 4278321417
0.049294289 0.14666572 0.63900006 4278321681
0.050511431 0.14666572 0.63900006 4278321418
0.051971432 0.14735429 0.64200002 4278321410
0.053442862 0.14804287 0.64500004 4278321410
0.054671433 0.14804287 0.64500004 4278321410
