# .PCD v0.7 - Point Cloud Data file format
VERSION 0.7
FIELDS x y z rgba
SIZE 4 4 4 4
TYPE F F F U
COUNT 1 1 1 1
WIDTH 1069
HEIGHT 1
VIEWPOINT 0 0 0 1 0 0 0
POINTS 1069
DATA ascii
0.16979429 0.010228572 0.71600002 4280811778
0.17115811 0.010228572 0.71600002 4280549634
0.17204002 0.0102 0.71400005 4280680705
0.17340001 0.0102 0.71400005 4280811777
0.17476001 0.0102 0.71400005 4280879105
0.17587334 0.010185715 0.71300006 4280947208
0.17723145 0.010185715 0.71300006 4280682511
0.17858954 0.010185715 0.71300006 4280353032
0.17944287 0.010157144 0.71100003 4279894273
0.18079716 0.010157144 0.71100003 4279435521
0.18215144 0.010157144 0.71100003 4280157185
0.18350573 0.010157144 0.71100003 4280815105
0.18486001 0.010157144 0.71100003 4280026369
0.1862143 0.010157144 0.71100003 4279173377
0.1880962 0.010185715 0.71300006 4280156673
0.1894543 0.010185715 0.71300006 4281073921
0.19108002 0.0102 0.71400005 4280418817
0.19244002 0.0102 0.71400005 4279763457
0.19380002 0.0102 0.71400005 4279369985
0.19516002 0.0102 0.71400005 4278976769
0.19734573 0.010242858 0.71700001 4278714625
0.19926573 0.010271429 0.71900004 4278452481
0.20063525 0.010271429 0.71900004 4278386945
0.20200478 0.010271429 0.71900004 4278386945
0.20365715 0.010285715 0.72000003 4278386945
0.20502858 0.010285715 0.72000003 4278452481
0.20697334 0.010314287 0.72200006 4278518017
0.20834859 0.010314287 0.72200006 4278649089
0.20972383 0.010314287 0.72200006 4278649089
0.21109906 0.010314287 0.72200006 4278649089
0.2124743 0.010314287 0.72200006 4278518017
0.21384954 0.010314287 0.72200006 4278387201
0.21522477 0.010314287 0.72200006 4278387201
0.14991143 0.011964763 0.73900002 4280025859
0.15029524 0.01188381 0.73400003 4280943362
0.15128002 0.011851429 0.73200005 4280549633
0.1526743 0.011851429 0.73200005 4280156417
0.15406857 0.011851429 0.73200005 4280615426
0.15525049 0.011835239 0.73100001 4281074184
0.1562143 0.011802858 0.72900003 4280353038
0.15738668 0.011786668 0.72800004 4279566600
0.15768287 0.011705715 0.72300005 4279435521
0.15884002 0.011689524 0.72200006 4279304449
0.16021524 0.011689524 0.72200006 4279435521
0.16114287 0.011657144 0.72000003 4279566849
0.1625143 0.011657144 0.72000003 4280025345
0.16365811 0.011640953 0.71900004 4280485378
0.16502763 0.011640953 0.71900004 4280615939
0.16639715 0.011640953 0.71900004 4280746754
0.16776668 0.011640953 0.71900004 4281008642
0.16866572 0.011608572 0.71700001 4281270787
0.16979429 0.011592382 0.71600002 4281139460
0.17115811 0.011592382 0.71600002 4280942850
0.17204002 0.01156 0.71400005 4281008385
0.17340001 0.01156 0.71400005 4281009153
0.17476001 0.01156 0.71400005 4280945410
0.17612001 0.01156 0.71400005 4280814597
0.17723145 0.01154381 0.71300006 4280484616
0.17858954 0.01154381 0.71300006 4280156677
0.17994763 0.01154381 0.71300006 4279566593
0.18079716 0.011511429 0.71100003 4278911233
0.18215144 0.011511429 0.71100003 4280090882
0.18350573 0.011511429 0.71100003 4281206017
0.18486001 0.011511429 0.71100003 4280025345
0.1867381 0.01154381 0.71300006 4278780161
0.1880962 0.01154381 0.71300006 4280287745
0.1894543 0.01154381 0.71300006 4281729537
0.19108002 0.01156 0.71400005 4280877313
0.19244002 0.01156 0.71400005 4279959809
0.19380002 0.01156 0.71400005 4279501057
0.19516002 0.01156 0.71400005 4278976769
0.19707049 0.011592382 0.71600002 4278780161
0.19926573 0.011640953 0.71900004 4278583553
0.20063525 0.011640953 0.71900004 4278452481
0.20200478 0.011640953 0.71900004 4278321409
0.20365715 0.011657144 0.72000003 4278386945
0.20502858 0.011657144 0.72000003 4278387201
0.20697334 0.011689524 0.72200006 4278518017
0.20834859 0.011689524 0.72200006 4278583553
0.20972383 0.011689524 0.72200006 4278649089
0.21109906 0.011689524 0.72200006 4278649089
0.2124743 0.011689524 0.72200006 4278518017
0.21384954 0.011689524 0.72200006 4278387201
0.21522477 0.011689524 0.72200006 4278387201
0.15029524 0.013281906 0.73400003 4280353538
0.15128002 0.013245715 0.73200005 4280222209
0.1526743 0.013245715 0.73200005 4280090881
0.15406857 0.013245715 0.73200005 4280287745
0.15525049 0.01322762 0.73100001 4280549633
0.1562143 0.01319143 0.72900003 4280025345
0.15738668 0.013173334 0.72800004 4279501057
0.15811905 0.013119048 0.72500002 4279435777
0.15906002 0.013082858 0.72300005 4279370241
0.16021524 0.013064763 0.72200006 4279632641
0.16114287 0.013028572 0.72000003 4279894529
0.1625143 0.013028572 0.72000003 4280354305
0.16365811 0.013010477 0.71900004 4280880131
0.16502763 0.013010477 0.71900004 4280485380
0.16639715 0.013010477 0.71900004 4280156931
0.16730002 0.012974286 0.71700001 4280484354
0.16866572 0.012974286 0.71700001 4280746500
0.16979429 0.012956192 0.71600002 4280746501
0.17115811 0.012956192 0.71600002 4280811779
0.17204002 0.012920001 0.71400005 4280943105
0.17340001 0.012920001 0.71400005 4281140226
0.17476001 0.012920001 0.71400005 4280945410
0.17612001 0.012920001 0.71400005 4280750338
0.17748001 0.012920001 0.71400005 4280485377
0.17858954 0.012901906 0.71300006 4280156417
0.17994763 0.012901906 0.71300006 4279763201
0.18130572 0.012901906 0.71300006 4279435522
0.18266383 0.012901906 0.71300006 4279960066
0.18402192 0.012901906 0.71300006 4280549890
0.18538001 0.012901906 0.71300006 4279959809
0.1867381 0.012901906 0.71300006 4279435521
0.1880962 0.012901906 0.71300006 4280156673
0.1894543 0.012901906 0.71300006 4280943105
0.19108002 0.012920001 0.71400005 4280484097
0.19244002 0.012920001 0.71400005 4279959809
0.19380002 0.012920001 0.71400005 4279566593
0.19516002 0.012920001 0.71400005 4279173377
0.19707049 0.012956192 0.71600002 4278845697
0.19926573 0.013010477 0.71900004 4278583553
0.20063525 0.013010477 0.71900004 4278452481
0.20200478 0.013010477 0.71900004 4278321409
0.20365715 0.013028572 0.72000003 4278452737
0.20502858 0.013028572 0.72000003 4278518529
0.20697334 0.013064763 0.72200006 4278583809
0.20777144 0.013028572 0.72000003 4278583809
0.20914286 0.013028572 0.72000003 4278649345
0.21109906 0.013064763 0.72200006 4278649089
0.2124743 0.013064763 0.72200006 4278584065
0.21325716 0.013028572 0.72000003 4278452993
0.21462859 0.013028572 0.72000003 4278518273
0.15128002 0.014640001 0.73200005 4279828993
0.1526743 0.014640001 0.73200005 4279960065
0.15406857 0.014640001 0.73200005 4280025857
0.15525049 0.01462 0.73100001 4280025601
0.1562143 0.014580001 0.72900003 4279697665
0.15760286 0.014580001 0.72900003 4279369985
0.15811905 0.014500001 0.72500002 4279435777
0.15906002 0.014460001 0.72300005 4279436033
0.16043715 0.014460001 0.72300005 4279829761
0.16159049 0.014440001 0.72200006 4280157441
0.1625143 0.014400001 0.72000003 4280682497
0.16388573 0.014400001 0.72000003 4281206530
0.16502763 0.014380001 0.71900004 4280419331
0.16639715 0.014380001 0.71900004 4279567106
0.16776668 0.014380001 0.71900004 4279894530
0.16866572 0.014340001 0.71700001 4280222211
0.16979429 0.014320001 0.71600002 4280418819
0.17115811 0.014320001 0.71600002 4280615426
0.17204002 0.014280001 0.71400005 4280943105
0.17340001 0.014280001 0.71400005 4281271553
0.17476001 0.014280001 0.71400005 4281010690
0.17612001 0.014280001 0.71400005 4280682753
0.17748001 0.014280001 0.71400005 4280419073
0.17858954 0.014260001 0.71300006 4280156673
0.17994763 0.014260001 0.71300006 4280025345
0.18130572 0.014260001 0.71300006 4279894273
0.18266383 0.014260001 0.71300006 4279894530
0.18402192 0.014260001 0.71300006 4279894529
0.18538001 0.014260001 0.71300006 4279959809
0.1867381 0.014260001 0.71300006 4280025601
0.1880962 0.014260001 0.71300006 4280091649
0.18972002 0.014280001 0.71400005 4280156929
0.19108002 0.014280001 0.71400005 4280090881
0.19244002 0.014280001 0.71400005 4279959809
0.19434287 0.014320001 0.71600002 4279632129
0.19570668 0.014320001 0.71600002 4279304449
0.19734573 0.014340001 0.71700001 4278911233
0.19926573 0.014380001 0.71900004 4278518017
0.20063525 0.014380001 0.71900004 4278452481
0.20200478 0.014380001 0.71900004 4278321409
0.20365715 0.014400001 0.72000003 4278518273
0.20502858 0.014400001 0.72000003 4278649601
0.20640001 0.014400001 0.72000003 4278649601
0.20777144 0.014400001 0.72000003 4278584065
0.20914286 0.014400001 0.72000003 4278649601
0.21051429 0.014400001 0.72000003 4278649601
0.21188574 0.014400001 0.72000003 4278584577
0.21325716 0.014400001 0.72000003 4278518529
0.21462859 0.014400001 0.72000003 4278583809
0.15128002 0.016034286 0.73200005 4280025601
0.1526743 0.016034286 0.73200005 4280221953
0.15406857 0.016034286 0.73200005 4280025601
0.15525049 0.016012382 0.73100001 4279829249
0.15664287 0.016012382 0.73100001 4279370241
0.15760286 0.015968572 0.72900003 4278976769
0.15833715 0.015902858 0.72600001 4279173633
0.15950002 0.015880954 0.72500002 4279304705
0.16043715 0.015837144 0.72300005 4279763969
0.16159049 0.015815239 0.72200006 4280157441
0.1625143 0.01577143 0.72000003 4280419585
0.16388573 0.01577143 0.72000003 4280681473
0.16525716 0.01577143 0.72000003 4280222465
0.16639715 0.015749525 0.71900004 4279763202
0.16776668 0.015749525 0.71900004 4279959810
0.16866572 0.015705716 0.71700001 4280156418
0.17003144 0.015705716 0.71700001 4280025345
0.17115811 0.015683811 0.71600002 4279894273
0.17252192 0.015683811 0.71600002 4280943361
0.17340001 0.015640002 0.71400005 4281926657
0.17476001 0.015640002 0.71400005 4281271553
0.17612001 0.015640002 0.71400005 4280550401
0.17748001 0.015640002 0.71400005 4280353281
0.17858954 0.015618096 0.71300006 4280221953
0.17994763 0.015618096 0.71300006 4280287745
0.18130572 0.015618096 0.71300006 4280353025
0.18266383 0.015618096 0.71300006 4279960065
0.18402192 0.015618096 0.71300006 4279566593
0.18538001 0.015618096 0.71300006 4279894529
0.1867381 0.015618096 0.71300006 4280222465
0.18836001 0.015640002 0.71400005 4280288257
0.18972002 0.015640002 0.71400005 4280288001
0.19108002 0.015640002 0.71400005 4280156673
0.19244002 0.015640002 0.71400005 4280025345
0.19434287 0.015683811 0.71600002 4279763201
0.19598001 0.015705716 0.71700001 4279501057
0.19734573 0.015705716 0.71700001 4279107841
0.19926573 0.015749525 0.71900004 4278714625
0.20063525 0.015749525 0.71900004 4278518017
0.20200478 0.015749525 0.71900004 4278321409
0.20365715 0.01577143 0.72000003 4278911489
0.20502858 0.01577143 0.72000003 4279567105
0.20697334 0.015815239 0.72200006 4278977025
0.20834859 0.015815239 0.72200006 4278452737
0.20972383 0.015815239 0.72200006 4278649601
0.21109906 0.015815239 0.72200006 4278911489
0.2124743 0.015815239 0.72200006 4278780673
0.21384954 0.015815239 0.72200006 4278649601
0.21522477 0.015815239 0.72200006 4278714881
0.15070477 0.01752381 0.73600006 4279894529
0.15169334 0.017476192 0.73400003 4280156417
0.1526743 0.017428573 0.73200005 4280418561
0.15406857 0.017428573 0.73200005 4280025345
0.15525049 0.017404763 0.73100001 4279566853
0.15664287 0.017404763 0.73100001 4279107849
0.15760286 0.017357145 0.72900003 4278583557
0.15833715 0.017285716 0.72600001 4278911233
0.15950002 0.017261906 0.72500002 4279173633
0.16043715 0.017214287 0.72300005 4279698177
0.16159049 0.017190477 0.72200006 4280158209
0.1625143 0.017142858 0.72000003 4280157185
0.16388573 0.017142858 0.72000003 4280156929
0.16525716 0.017142858 0.72000003 4280090881
0.16639715 0.017119048 0.71900004 4279959809
0.16776668 0.017119048 0.71900004 4280025346
0.1691362 0.017119048 0.71900004 4280025601
0.17003144 0.01707143 0.71700001 4279632129
0.17115811 0.017047619 0.71600002 4279173633
0.17252192 0.017047619 0.71600002 4280877825
0.17340001 0.017000001 0.71400005 4282582273
0.17476001 0.017000001 0.71400005 4281533186
0.17612001 0.017000001 0.71400005 4280419073
0.17748001 0.017000001 0.71400005 4280353025
0.17884001 0.017000001 0.71400005 4280222209
0.18020001 0.017000001 0.71400005 4280485122
0.18130572 0.016976191 0.71300006 4280747009
0.18266383 0.016976191 0.71300006 4280025857
0.18402192 0.016976191 0.71300006 4279239425
0.18538001 0.016976191 0.71300006 4279829505
0.1867381 0.016976191 0.71300006 4280419329
0.18836001 0.017000001 0.71400005 4280419330
0.18972002 0.017000001 0.71400005 4280419329
0.19108002 0.017000001 0.71400005 4280222465
0.19244002 0.017000001 0.71400005 4280025601
0.19434287 0.017047619 0.71600002 4279828737
0.19570668 0.017047619 0.71600002 4279632129
0.19734573 0.01707143 0.71700001 4279304449
0.19926573 0.017119048 0.71900004 4278911233
0.20063525 0.017119048 0.71900004 4278583553
0.20228572 0.017142858 0.72000003 4278255873
0.20365715 0.017142858 0.72000003 4279369985
0.20502858 0.017142858 0.72000003 4280418817
0.20697334 0.017190477 0.72200006 4279369985
0.20834859 0.017190477 0.72200006 4278256129
0.2100143 0.017214287 0.72300005 4278715137
0.21139145 0.017214287 0.72300005 4279108353
0.21276858 0.017214287 0.72300005 4278911489
0.21384954 0.017190477 0.72200006 4278714881
0.21552287 0.017214287 0.72300005 4278845697
0.21690002 0.017214287 0.72300005 4278911234
0.15070477 0.018925715 0.73600006 4279698178
0.15128002 0.018822858 0.73200005 4279632385
0.1526743 0.018822858 0.73200005 4279501057
0.15406857 0.018822858 0.73200005 4279566593
0.15546286 0.018822858 0.73200005 4279632137
0.15664287 0.018797144 0.73100001 4279238928
0.15803525 0.018797144 0.73100001 4278911241
0.15833715 0.018668573 0.72600001 4279042561
0.15950002 0.018642858 0.72500002 4279239425
0.16043715 0.01859143 0.72300005 4280092929
0.1618143 0.01859143 0.72300005 4280947457
0.16296573 0.018565716 0.72200006 4280748289
0.16388573 0.018514287 0.72000003 4280484865
0.16525716 0.018514287 0.72000003 4280287745
0.16639715 0.018488573 0.71900004 4280156417
0.16776668 0.018488573 0.71900004 4280091137
0.16866572 0.018437143 0.71700001 4280091393
0.17003144 0.018437143 0.71700001 4279894529
0.17115811 0.01841143 0.71600002 4279763201
0.17204002 0.018360002 0.71400005 4280812801
0.17340001 0.018360002 0.71400005 4281862914
0.17476001 0.018360002 0.71400005 4281271810
0.17612001 0.018360002 0.71400005 4280746754
0.17748001 0.018360002 0.71400005 4280615425
0.17884001 0.018360002 0.71400005 4280484354
0.18020001 0.018360002 0.71400005 4280943618
0.18130572 0.018334286 0.71300006 4281402626
0.18266383 0.018334286 0.71300006 4280550401
0.18402192 0.018334286 0.71300006 4279698689
0.18538001 0.018334286 0.71300006 4280354049
0.18700001 0.018360002 0.71400005 4281009410
0.18836001 0.018360002 0.71400005 4280747266
0.18972002 0.018360002 0.71400005 4280485122
0.19108002 0.018360002 0.71400005 4280222465
0.19244002 0.018360002 0.71400005 4279959809
0.19434287 0.01841143 0.71600002 4279763201
0.19570668 0.01841143 0.71600002 4279501057
0.19734573 0.018437143 0.71700001 4279238913
0.19871144 0.018437143 0.71700001 4278911233
0.20007716 0.018437143 0.71700001 4278714625
0.20200478 0.018488573 0.71900004 4278583553
0.20365715 0.018514287 0.72000003 4279107841
0.20502858 0.018514287 0.72000003 4279697921
0.20640001 0.018514287 0.72000003 4279173633
0.20834859 0.018565716 0.72200006 4278584065
0.2100143 0.01859143 0.72300005 4278715137
0.21139145 0.01859143 0.72300005 4278912001
0.21276858 0.01859143 0.72300005 4278715137
0.21414573 0.01859143 0.72300005 4278518273
0.21552287 0.01859143 0.72300005 4278911489
0.21690002 0.01859143 0.72300005 4279304452
0.15070477 0.02032762 0.73600006 4279501314
0.15128002 0.020217145 0.73200005 4279042306
0.1526743 0.020217145 0.73200005 4278583553
0.15406857 0.020217145 0.73200005 4279173377
0.15546286 0.020217145 0.73200005 4279697669
0.15664287 0.020189526 0.73100001 4279435530
0.15803525 0.020189526 0.73100001 4279173381
0.15877335 0.020106668 0.72800004 4279238913
0.15972 0.020051429 0.72600001 4279305479
0.16043715 0.019968573 0.72300005 4280552461
0.1618143 0.019968573 0.72300005 4281732615
0.16296573 0.019940954 0.72200006 4281272833
0.16388573 0.019885715 0.72000003 4280812801
0.16525716 0.019885715 0.72000003 4280549633
0.16639715 0.019858096 0.71900004 4280287489
0.16776668 0.019858096 0.71900004 4280222209
0.16866572 0.019802859 0.71700001 4280091137
0.17003144 0.019802859 0.71700001 4280221953
0.17139715 0.019802859 0.71700001 4280287746
0.17204002 0.019720001 0.71400005 4280681219
0.17340001 0.019720001 0.71400005 4281075458
0.17476001 0.019720001 0.71400005 4281074946
0.17612001 0.019720001 0.71400005 4281009158
0.17748001 0.019720001 0.71400005 4280877835
0.17858954 0.019692382 0.71300006 4280746503
0.18020001 0.019720001 0.71400005 4281402115
0.18130572 0.019692382 0.71300006 4281991938
0.18266383 0.019692382 0.71300006 4281074433
0.18402192 0.019692382 0.71300006 4280157185
0.18538001 0.019692382 0.71300006 4280878849
0.18700001 0.019720001 0.71400005 4281533698
0.18836001 0.019720001 0.71400005 4281009155
0.18972002 0.019720001 0.71400005 4280484610
0.19108002 0.019720001 0.71400005 4280221953
0.19244002 0.019720001 0.71400005 4279894273
0.19434287 0.01977524 0.71600002 4279632129
0.19570668 0.01977524 0.71600002 4279369985
0.19707049 0.01977524 0.71600002 4279173377
0.19871144 0.019802859 0.71700001 4278911233
0.20063525 0.019858096 0.71900004 4278911233
0.20228572 0.019885715 0.72000003 4278845697
0.20365715 0.019885715 0.72000003 4278911233
0.20502858 0.019885715 0.72000003 4278977025
0.20697334 0.019940954 0.72200006 4278977025
0.20834859 0.019940954 0.72200006 4278911489
0.2100143 0.019968573 0.72300005 4278780673
0.2119762 0.020023812 0.72500002 4278649601
0.21335715 0.020023812 0.72500002 4278452993
0.21503431 0.020051429 0.72600001 4278256129
0.21641716 0.020051429 0.72600001 4278977025
0.15169334 0.021670477 0.73400003 4279632386
0.1526743 0.02161143 0.73200005 4279894274
0.15406857 0.02161143 0.73200005 4279828737
0.15546286 0.02161143 0.73200005 4279763202
0.15664287 0.021581907 0.73100001 4279435779
0.15803525 0.021581907 0.73100001 4279108098
0.15877335 0.021493334 0.72800004 4278977025
0.15972 0.021434287 0.72600001 4278846221
0.16043715 0.021345716 0.72300005 4279896345
0.1618143 0.021345716 0.72300005 4281011725
0.16296573 0.021316191 0.72200006 4280748545
0.16434096 0.021316191 0.72200006 4280419329
0.16525716 0.021257143 0.72000003 4280353537
0.16639715 0.021227621 0.71900004 4280221953
0.16776668 0.021227621 0.71900004 4280221953
0.1691362 0.021227621 0.71900004 4280287489
0.17003144 0.021168573 0.71700001 4280287489
0.17139715 0.021168573 0.71700001 4280287491
0.17252192 0.02113905 0.71600002 4280943620
0.17340001 0.021080002 0.71400005 4281665283
0.17476001 0.021080002 0.71400005 4281402625
0.17612001 0.021080002 0.71400005 4281074443
0.17748001 0.021080002 0.71400005 4280877588
0.17858954 0.021050477 0.71300006 4280746252
0.17994763 0.021050477 0.71300006 4280943108
0.18130572 0.021050477 0.71300006 4281139715
0.18266383 0.021050477 0.71300006 4280222209
0.18402192 0.021050477 0.71300006 4279369985
0.18538001 0.021050477 0.71300006 4280156929
0.1867381 0.021050477 0.71300006 4280943362
0.18836001 0.021080002 0.71400005 4280549891
0.18972002 0.021080002 0.71400005 4280221954
0.19108002 0.021080002 0.71400005 4279894273
0.19244002 0.021080002 0.71400005 4279632129
0.19434287 0.02113905 0.71600002 4279435521
0.19598001 0.021168573 0.71700001 4279304449
0.19734573 0.021168573 0.71700001 4279173377
0.19871144 0.021168573 0.71700001 4279107841
0.20063525 0.021227621 0.71900004 4278976769
0.20228572 0.021257143 0.72000003 4278911233
0.20365715 0.021257143 0.72000003 4278976769
0.20502858 0.021257143 0.72000003 4278976769
0.20697334 0.021316191 0.72200006 4278976769
0.20834859 0.021316191 0.72200006 4278911233
0.2100143 0.021345716 0.72300005 4278845953
0.2119762 0.021404764 0.72500002 4278780673
0.21365145 0.021434287 0.72600001 4278649601
0.21562669 0.021493334 0.72800004 4278583809
0.21701334 0.021493334 0.72800004 4278977281
0.14850383 0.023225715 0.73900002 4278780161
0.14991143 0.023225715 0.73900002 4279042561
0.15090953 0.023162859 0.73700005 4279304711
0.15169334 0.023068573 0.73400003 4280288013
0.15309145 0.023068573 0.73400003 4281205255
0.15448953 0.023068573 0.73400003 4280549889
0.15546286 0.023005717 0.73200005 4279828994
0.15664287 0.022974288 0.73100001 4279435778
0.15803525 0.022974288 0.73100001 4278977026
0.15877335 0.022880001 0.72800004 4278649089
0.15972 0.022817144 0.72600001 4278321927
0.16088097 0.022785716 0.72500002 4279306253
0.1618143 0.022722859 0.72300005 4280289799
0.16319144 0.022722859 0.72300005 4280158978
0.16434096 0.022691431 0.72200006 4280026625
0.16525716 0.022628574 0.72000003 4280091649
0.16662858 0.022628574 0.72000003 4280156673
0.16776668 0.022597143 0.71900004 4280287489
0.1691362 0.022597143 0.71900004 4280418561
0.17003144 0.022534287 0.71700001 4280353025
0.17139715 0.022534287 0.71700001 4280222210
0.17252192 0.022502858 0.71600002 4281271043
0.17340001 0.022440001 0.71400005 4282254338
0.17476001 0.022440001 0.71400005 4281730049
0.17612001 0.022440001 0.71400005 4281139718
0.17748001 0.022440001 0.71400005 4280942859
0.17858954 0.022408573 0.71300006 4280680711
0.18020001 0.022440001 0.71400005 4280484099
0.18130572 0.022408573 0.71300006 4280221954
0.18266383 0.022408573 0.71300006 4279435521
0.18402192 0.022408573 0.71300006 4278583553
0.18538001 0.022408573 0.71300006 4279435521
0.18700001 0.022440001 0.71400005 4280287746
0.18836001 0.022440001 0.71400005 4280090883
0.18972002 0.022440001 0.71400005 4279894274
0.19108002 0.022440001 0.71400005 4279632129
0.19244002 0.022440001 0.71400005 4279304449
0.19434287 0.022502858 0.71600002 4279238913
0.19598001 0.022534287 0.71700001 4279173377
0.19734573 0.022534287 0.71700001 4279238913
0.19871144 0.022534287 0.71700001 4279238913
0.20063525 0.022597143 0.71900004 4279107841
0.20200478 0.022597143 0.71900004 4278977025
0.2033743 0.022597143 0.71900004 4278976769
0.20502858 0.022628574 0.72000003 4278976769
0.20697334 0.022691431 0.72200006 4278976769
0.20834859 0.022691431 0.72200006 4278911234
0.21059525 0.022785716 0.72500002 4278911235
0.21226859 0.022817144 0.72600001 4278845954
0.21365145 0.022817144 0.72600001 4278845953
0.21562669 0.022880001 0.72800004 4278846209
0.21701334 0.022880001 0.72800004 4279042817
0.21840002 0.022880001 0.72800004 4279173633
0.14850383 0.024633335 0.73900002 4278649089
0.14991143 0.024633335 0.73900002 4278845953
0.15090953 0.024566669 0.73700005 4278977036
0.15210667 0.024533335 0.73600006 4279697943
0.15309145 0.024466669 0.73400003 4280353292
0.15448953 0.024466669 0.73400003 4279960065
0.15588763 0.024466669 0.73400003 4279566593
0.15685715 0.024400001 0.73200005 4279304449
0.15803525 0.024366667 0.73100001 4278976769
0.15899144 0.024300002 0.72900003 4278845697
0.15972 0.024200002 0.72600001 4278649089
0.16110286 0.024200002 0.72600001 4279239681
0.1618143 0.024100002 0.72300005 4279830274
0.16319144 0.024100002 0.72300005 4279633410
0.16434096 0.024066668 0.72200006 4279501826
0.16525716 0.024000002 0.72000003 4279632641
0.16662858 0.024000002 0.72000003 4279763201
0.16776668 0.023966668 0.71900004 4280353025
0.1691362 0.023966668 0.71900004 4280942849
0.17050573 0.023966668 0.71900004 4280418561
0.17139715 0.023900002 0.71700001 4279959809
0.17252192 0.023866668 0.71600002 4280615425
0.17388573 0.023866668 0.71600002 4281336321
0.17476001 0.023800002 0.71400005 4281008641
0.17612001 0.023800002 0.71400005 4280680705
0.17748001 0.023800002 0.71400005 4280549633
0.17884001 0.023800002 0.71400005 4280484097
0.18020001 0.023800002 0.71400005 4280353025
0.18156001 0.023800002 0.71400005 4280221953
0.18292001 0.023800002 0.71400005 4279763201
0.18402192 0.023766669 0.71300006 4279238913
0.18538001 0.023766669 0.71300006 4279959809
0.18700001 0.023800002 0.71400005 4280680706
0.18836001 0.023800002 0.71400005 4280287490
0.18972002 0.023800002 0.71400005 4279894274
0.19108002 0.023800002 0.71400005 4279435521
0.19244002 0.023800002 0.71400005 4278976769
0.19434287 0.023866668 0.71600002 4279238913
0.19570668 0.023866668 0.71600002 4279566593
0.19734573 0.023900002 0.71700001 4279632385
0.19871144 0.023900002 0.71700001 4279763457
0.20063525 0.023966668 0.71900004 4279632641
0.20200478 0.023966668 0.71900004 4279501569
0.2033743 0.023966668 0.71900004 4279370241
0.20474382 0.023966668 0.71900004 4279304449
0.20697334 0.024066668 0.72200006 4279173377
0.20834859 0.024066668 0.72200006 4279107843
0.2100143 0.024100002 0.72300005 4278976773
0.2119762 0.024166668 0.72500002 4278845699
0.21335715 0.024166668 0.72500002 4278845953
0.21503431 0.024200002 0.72600001 4278911745
0.21701334 0.024266668 0.72800004 4278911489
0.21840002 0.024266668 0.72800004 4278976769
0.21978667 0.024266668 0.72800004 4278780161
0.14850383 0.026040955 0.73900002 4278518017
0.14991143 0.026040955 0.73900002 4278583553
0.15090953 0.025970478 0.73700005 4278649095
0.15231334 0.025970478 0.73700005 4279107852
0.15350859 0.02593524 0.73600006 4279501063
0.15491049 0.02593524 0.73600006 4279435521
0.15588763 0.025864763 0.73400003 4279304449
0.15685715 0.025794288 0.73200005 4279173377
0.15803525 0.025759049 0.73100001 4278976769
0.15942763 0.025759049 0.73100001 4278976769
0.15972 0.025582859 0.72600001 4278976769
0.16088097 0.02554762 0.72500002 4279173377
0.1618143 0.025477145 0.72300005 4279304961
0.16319144 0.025477145 0.72300005 4279108354
0.16434096 0.025441907 0.72200006 4278911489
0.16525716 0.02537143 0.72000003 4279107841
0.16662858 0.02537143 0.72000003 4279304449
0.16776668 0.025336193 0.71900004 4280353025
0.1691362 0.025336193 0.71900004 4281401601
0.17050573 0.025336193 0.71900004 4280549633
0.17139715 0.025265716 0.71700001 4279632129
0.17252192 0.025230478 0.71600002 4280025345
0.17388573 0.025230478 0.71600002 4280418561
0.17476001 0.025160002 0.71400005 4280287489
0.17612001 0.025160002 0.71400005 4280156417
0.17748001 0.025160002 0.71400005 4280221953
0.17884001 0.025160002 0.71400005 4280287489
0.18020001 0.025160002 0.71400005 4280287489
0.18156001 0.025160002 0.71400005 4280221953
0.18292001 0.025160002 0.71400005 4280090881
0.18402192 0.025124764 0.71300006 4279894273
0.18538001 0.025124764 0.71300006 4280484097
0.1867381 0.025124764 0.71300006 4281008385
0.18836001 0.025160002 0.71400005 4280418562
0.18972002 0.025160002 0.71400005 4279828737
0.19108002 0.025160002 0.71400005 4279238913
0.19244002 0.025160002 0.71400005 4278649089
0.19434287 0.025230478 0.71600002 4279304449
0.19570668 0.025230478 0.71600002 4279894529
0.19734573 0.025265716 0.71700001 4280091393
0.19871144 0.025265716 0.71700001 4280288001
0.20063525 0.025336193 0.71900004 4280157185
0.20200478 0.025336193 0.71900004 4280025857
0.2033743 0.025336193 0.71900004 4279828737
0.20474382 0.025336193 0.71900004 4279566593
0.20640001 0.02537143 0.72000003 4279435521
0.20834859 0.025441907 0.72200006 4279304450
0.2100143 0.025477145 0.72300005 4279042307
0.2119762 0.02554762 0.72500002 4278780162
0.21335715 0.02554762 0.72500002 4278845953
0.21503431 0.025582859 0.72600001 4278911489
0.21641716 0.025582859 0.72600001 4278845953
0.21780002 0.025582859 0.72600001 4278780417
0.21918288 0.025582859 0.72600001 4278649089
0.1501143 0.027485715 0.74000001 4278518017
0.15131906 0.027448574 0.73900002 4278649089
0.15231334 0.027374288 0.73700005 4278911233
0.15371716 0.027374288 0.73700005 4279238913
0.15491049 0.027337145 0.73600006 4279304449
0.15588763 0.027262859 0.73400003 4279369985
0.15685715 0.027188573 0.73200005 4279369985
0.15803525 0.02715143 0.73100001 4279435521
0.15942763 0.02715143 0.73100001 4279369985
0.15972 0.026965717 0.72600001 4279304449
0.16088097 0.026928574 0.72500002 4279566593
0.1618143 0.026854288 0.72300005 4279894273
0.16296573 0.026817145 0.72200006 4279370241
0.16434096 0.026817145 0.72200006 4278845697
0.16525716 0.026742859 0.72000003 4279042305
0.16662858 0.026742859 0.72000003 4279304449
0.16800001 0.026742859 0.72000003 4279959809
0.1691362 0.026705716 0.71900004 4280615169
0.17050573 0.026705716 0.71900004 4279828737
0.17139715 0.02663143 0.71700001 4279042305
0.17252192 0.026594287 0.71600002 4279501057
0.17388573 0.026594287 0.71600002 4279959809
0.17476001 0.026520003 0.71400005 4280090881
0.17612001 0.026520003 0.71400005 4280156417
0.17748001 0.026520003 0.71400005 4280418561
0.17884001 0.026520003 0.71400005 4280680705
0.18020001 0.026520003 0.71400005 4280418561
0.18156001 0.026520003 0.71400005 4280221953
0.18292001 0.026520003 0.71400005 4279894273
0.18402192 0.02648286 0.71300006 4279632129
0.18564001 0.026520003 0.71400005 4279894273
0.18700001 0.026520003 0.71400005 4280156417
0.18836001 0.026520003 0.71400005 4279959809
0.18972002 0.026520003 0.71400005 4279697665
0.19108002 0.026520003 0.71400005 4279501057
0.19244002 0.026520003 0.71400005 4279238913
0.19434287 0.026594287 0.71600002 4279763201
0.19598001 0.02663143 0.71700001 4280353025
0.19734573 0.02663143 0.71700001 4280353281
0.19871144 0.02663143 0.71700001 4280353537
0.20007716 0.02663143 0.71700001 4280419073
0.20200478 0.026705716 0.71900004 4280550145
0.2033743 0.026705716 0.71900004 4279894529
0.20474382 0.026705716 0.71900004 4279304705
0.20640001 0.026742859 0.72000003 4279239169
0.20834859 0.026817145 0.72200006 4279107841
0.2100143 0.026854288 0.72300005 4278845697
0.2119762 0.026928574 0.72500002 4278583553
0.21365145 0.026965717 0.72600001 4278845953
0.21562669 0.027040001 0.72800004 4279173633
0.21701334 0.027040001 0.72800004 4278977025
0.21840002 0.027040001 0.72800004 4278780417
0.21978667 0.027040001 0.72800004 4278649345
0.14930762 0.029012382 0.74300003 4278386945
0.15052001 0.028973335 0.74200004 4278518017
0.15193334 0.028973335 0.74200004 4278583553
0.15272668 0.028856192 0.73900002 4278780161
0.15371716 0.028778097 0.73700005 4278976770
0.15491049 0.02873905 0.73600006 4279173378
0.15588763 0.028660955 0.73400003 4279369986
0.15685715 0.02858286 0.73200005 4279632129
0.15825143 0.02858286 0.73200005 4279894273
0.15942763 0.028543811 0.73100001 4279763201
0.15972 0.028348573 0.72600001 4279566593
0.16088097 0.028309526 0.72500002 4280025345
0.1618143 0.028231431 0.72300005 4280418561
0.16319144 0.028231431 0.72300005 4279566593
0.16434096 0.028192382 0.72200006 4278714625
0.16525716 0.028114287 0.72000003 4279042305
0.16662858 0.028114287 0.72000003 4279304449
0.16800001 0.028114287 0.72000003 4279566593
0.16937144 0.028114287 0.72000003 4279828737
0.17050573 0.028075241 0.71900004 4279107841
0.17187525 0.028075241 0.71900004 4278386945
0.17276287 0.027997145 0.71700001 4278976769
0.17412858 0.027997145 0.71700001 4279501057
0.17524953 0.027958097 0.71600002 4279828737
0.17661335 0.027958097 0.71600002 4280156417
0.17748001 0.027880002 0.71400005 4280615169
0.17884001 0.027880002 0.71400005 4281008385
0.18020001 0.027880002 0.71400005 4280615169
0.18156001 0.027880002 0.71400005 4280221953
0.18292001 0.027880002 0.71400005 4279763201
0.18402192 0.027840953 0.71300006 4279304449
0.18564001 0.027880002 0.71400005 4279304449
0.18700001 0.027880002 0.71400005 4279304449
0.18836001 0.027880002 0.71400005 4279435521
0.18972002 0.027880002 0.71400005 4279566596
0.19108002 0.027880002 0.71400005 4279697671
0.19244002 0.027880002 0.71400005 4279828996
0.19434287 0.027958097 0.71600002 4280287745
0.19570668 0.027958097 0.71600002 4280746754
0.19734573 0.027997145 0.71700001 4280615427
0.19871144 0.027997145 0.71700001 4280419074
0.20007716 0.027997145 0.71700001 4280746753
0.20200478 0.028075241 0.71900004 4281008897
0.2033743 0.028075241 0.71900004 4280025857
0.20474382 0.028075241 0.71900004 4279042561
0.20640001 0.028114287 0.72000003 4278977025
0.20834859 0.028192382 0.72200006 4278911233
0.2100143 0.028231431 0.72300005 4278649089
0.21226859 0.028348573 0.72600001 4278321409
0.21365145 0.028348573 0.72600001 4278845697
0.21562669 0.028426668 0.72800004 4279370241
0.21701334 0.028426668 0.72800004 4279108353
0.21840002 0.028426668 0.72800004 4278780417
0.21978667 0.028426668 0.72800004 4278649345
0.14930762 0.030427622 0.74300003 4278386945
0.15052001 0.03038667 0.74200004 4278386945
0.15193334 0.03038667 0.74200004 4278452481
0.15272668 0.030263811 0.73900002 4278714625
0.15371716 0.030181907 0.73700005 4278976770
0.15491049 0.030140955 0.73600006 4279173379
0.15588763 0.030059049 0.73400003 4279369986
0.15685715 0.029977145 0.73200005 4279501057
0.15803525 0.029936193 0.73100001 4279632129
0.15899144 0.029854288 0.72900003 4279435521
0.15972 0.02973143 0.72600001 4279238913
0.16088097 0.029690478 0.72500002 4279566593
0.1618143 0.029608574 0.72300005 4279959809
0.16319144 0.029608574 0.72300005 4279501057
0.16434096 0.029567622 0.72200006 4278976769
0.16525716 0.029485716 0.72000003 4279042305
0.16662858 0.029485716 0.72000003 4279173377
0.16800001 0.029485716 0.72000003 4279369985
0.16937144 0.029485716 0.72000003 4279632129
0.17050573 0.029444763 0.71900004 4279238913
0.17187525 0.029444763 0.71900004 4278911233
0.17276287 0.029362859 0.71700001 4279173377
0.17412858 0.029362859 0.71700001 4279435521
0.17524953 0.029321907 0.71600002 4279697665
0.17661335 0.029321907 0.71600002 4280025345
0.17748001 0.029240001 0.71400005 4280353025
0.17884001 0.029240001 0.71400005 4280680705
0.18020001 0.029240001 0.71400005 4280353025
0.18156001 0.029240001 0.71400005 4280090881
0.18292001 0.029240001 0.71400005 4279435521
0.18428001 0.029240001 0.71400005 4278845697
0.18564001 0.029240001 0.71400005 4279042305
0.18700001 0.029240001 0.71400005 4279304449
0.18836001 0.029240001 0.71400005 4279566593
0.18972002 0.029240001 0.71400005 4279894279
0.19108002 0.029240001 0.71400005 4280026125
0.19244002 0.029240001 0.71400005 4280157191
0.19434287 0.029321907 0.71600002 4280681729
0.19570668 0.029321907 0.71600002 4281206019
0.19734573 0.029362859 0.71700001 4280615940
0.19871144 0.029362859 0.71700001 4280026115
0.20007716 0.029362859 0.71700001 4279894785
0.20200478 0.029444763 0.71900004 4279828993
0.2033743 0.029444763 0.71900004 4279304705
0.20474382 0.029444763 0.71900004 4278780417
0.20640001 0.029485716 0.72000003 4278780417
0.20834859 0.029567622 0.72200006 4278780161
0.2100143 0.029608574 0.72300005 4278714881
0.2119762 0.029690478 0.72500002 4278649345
0.21365145 0.02973143 0.72600001 4278846209
0.21503431 0.02973143 0.72600001 4279042817
0.21641716 0.02973143 0.72600001 4278846209
0.21780002 0.02973143 0.72600001 4278649089
0.21918288 0.02973143 0.72600001 4278583809
0.15052001 0.031800002 0.74200004 4278321409
0.15152381 0.031714287 0.74000001 4278321409
0.15231334 0.031585716 0.73700005 4278649089
0.15371716 0.031585716 0.73700005 4278911234
0.15448953 0.031457145 0.73400003 4279107842
0.15588763 0.031457145 0.73400003 4279304450
0.15685715 0.03137143 0.73200005 4279304449
0.15803525 0.031328574 0.73100001 4279304449
0.15899144 0.031242859 0.72900003 4279107841
0.15972 0.031114288 0.72600001 4278845697
0.16088097 0.03107143 0.72500002 4279173377
0.16226192 0.03107143 0.72500002 4279501057
0.16319144 0.030985717 0.72300005 4279369985
0.16434096 0.030942859 0.72200006 4279238913
0.1657162 0.030942859 0.72200006 4279107841
0.16662858 0.030857146 0.72000003 4278976769
0.16800001 0.030857146 0.72000003 4279173377
0.16937144 0.030857146 0.72000003 4279369985
0.17050573 0.030814288 0.71900004 4279369985
0.17187525 0.030814288 0.71900004 4279369985
0.17324477 0.030814288 0.71900004 4279369985
0.17412858 0.030728573 0.71700001 4279304449
0.17524953 0.030685715 0.71600002 4279632129
0.17661335 0.030685715 0.71600002 4279894273
0.17748001 0.030600002 0.71400005 4280090881
0.17884001 0.030600002 0.71400005 4280287489
0.18020001 0.030600002 0.71400005 4280090881
0.18156001 0.030600002 0.71400005 4279894273
0.18292001 0.030600002 0.71400005 4279173377
0.18428001 0.030600002 0.71400005 4278386945
0.18564001 0.030600002 0.71400005 4278845697
0.18700001 0.030600002 0.71400005 4279238913
0.18836001 0.030600002 0.71400005 4279697665
0.18972002 0.030600002 0.71400005 4280157444
0.19108002 0.030600002 0.71400005 4280289543
0.19244002 0.030600002 0.71400005 4280420100
0.19434287 0.030685715 0.71600002 4281075457
0.19570668 0.030685715 0.71600002 4281665282
0.19734573 0.030728573 0.71700001 4280616451
0.19871144 0.030728573 0.71700001 4279567106
0.20007716 0.030728573 0.71700001 4279107841
0.20200478 0.030814288 0.71900004 4278583553
0.2033743 0.030814288 0.71900004 4278518017
0.20474382 0.030814288 0.71900004 4278452481
0.20640001 0.030857146 0.72000003 4278518017
0.20834859 0.030942859 0.72200006 4278583809
0.2100143 0.030985717 0.72300005 4278780673
0.2119762 0.03107143 0.72500002 4278911745
0.21335715 0.03107143 0.72500002 4278780929
0.21503431 0.031114288 0.72600001 4278649601
0.21641716 0.031114288 0.72600001 4278584065
0.21750002 0.03107143 0.72500002 4278452737
0.21918288 0.031114288 0.72600001 4278452737
0.22056572 0.031114288 0.72600001 4278452737
0.15152381 0.03312381 0.74000001 4278321409
0.15231334 0.032989524 0.73700005 4278518017
0.15371716 0.032989524 0.73700005 4278714625
0.15448953 0.032855239 0.73400003 4279042305
0.15588763 0.032855239 0.73400003 4279435521
0.15685715 0.032765716 0.73200005 4279304449
0.15825143 0.032765716 0.73200005 4279173377
0.15942763 0.032720953 0.73100001 4278911233
0.15972 0.032497145 0.72600001 4278649089
0.16088097 0.032452382 0.72500002 4279304449
0.16226192 0.032452382 0.72500002 4280025345
0.16319144 0.03236286 0.72300005 4279566593
0.16434096 0.032318097 0.72200006 4279107841
0.1657162 0.032318097 0.72200006 4279042305
0.16662858 0.032228574 0.72000003 4278976769
0.16800001 0.032228574 0.72000003 4279173377
0.16937144 0.032228574 0.72000003 4279369985
0.17050573 0.032183811 0.71900004 4279369985
0.17187525 0.032183811 0.71900004 4279369985
0.17324477 0.032183811 0.71900004 4279107841
0.17412858 0.032094289 0.71700001 4278845697
0.1754943 0.032094289 0.71700001 4279566849
0.17661335 0.032049526 0.71600002 4280287745
0.17797716 0.032049526 0.71600002 4280156417
0.17884001 0.031960003 0.71400005 4280090881
0.18020001 0.031960003 0.71400005 4279894273
0.18156001 0.031960003 0.71400005 4279763201
0.18292001 0.031960003 0.71400005 4279304449
0.18428001 0.031960003 0.71400005 4278911233
0.18564001 0.031960003 0.71400005 4279239169
0.18700001 0.031960003 0.71400005 4279632385
0.18836001 0.031960003 0.71400005 4280092161
0.18972002 0.031960003 0.71400005 4280617473
0.19108002 0.031960003 0.71400005 4280289281
0.19244002 0.031960003 0.71400005 4280026881
0.19434287 0.032049526 0.71600002 4280223233
0.19570668 0.032049526 0.71600002 4280486401
0.19707049 0.032049526 0.71600002 4279829761
0.19871144 0.032094289 0.71700001 4279238913
0.20007716 0.032094289 0.71700001 4278845697
0.20200478 0.032183811 0.71900004 4278452481
0.2033743 0.032183811 0.71900004 4278583553
0.20502858 0.032228574 0.72000003 4278649089
0.20640001 0.032228574 0.72000003 4278714625
0.20834859 0.032318097 0.72200006 4278714625
0.2100143 0.03236286 0.72300005 4278845953
0.21139145 0.03236286 0.72300005 4278976769
0.21276858 0.03236286 0.72300005 4278780417
0.21473812 0.032452382 0.72500002 4278649089
0.21611907 0.032452382 0.72500002 4278583809
0.21750002 0.032452382 0.72500002 4278518017
0.21888097 0.032452382 0.72500002 4278518017
0.22056572 0.032497145 0.72600001 4278583553
0.15231334 0.034393337 0.73700005 4278386945
0.15350859 0.03434667 0.73600006 4278518017
0.15448953 0.034253336 0.73400003 4279042305
0.15588763 0.034253336 0.73400003 4279501057
0.15685715 0.034160003 0.73200005 4279238913
0.15825143 0.034160003 0.73200005 4278976769
0.15942763 0.034113336 0.73100001 4278714625
0.15972 0.033880003 0.72600001 4278386945
0.16110286 0.033880003 0.72600001 4279501057
0.16226192 0.033833336 0.72500002 4280549633
0.16319144 0.033740003 0.72300005 4279763201
0.16456859 0.033740003 0.72300005 4278976769
0.1657162 0.033693336 0.72200006 4278976769
0.16662858 0.033600003 0.72000003 4278976769
0.16800001 0.033600003 0.72000003 4279173377
0.16937144 0.033600003 0.72000003 4279304449
0.17050573 0.033553336 0.71900004 4279304449
0.17187525 0.033553336 0.71900004 4279304449
0.17324477 0.033553336 0.71900004 4278845697
0.17412858 0.033460002 0.71700001 4278321409
0.1754943 0.033460002 0.71700001 4279501313
0.17661335 0.033413336 0.71600002 4280680961
0.17797716 0.033413336 0.71600002 4280287489
0.17884001 0.033320002 0.71400005 4279828737
0.18020001 0.033320002 0.71400005 4279697665
0.18156001 0.033320002 0.71400005 4279566593
0.18292001 0.033320002 0.71400005 4279501057
0.18428001 0.033320002 0.71400005 4279369985
0.18564001 0.033320002 0.71400005 4279697921
0.18700001 0.033320002 0.71400005 4279961601
0.18836001 0.033320002 0.71400005 4280486913
0.18972002 0.033320002 0.71400005 4281009921
0.19108002 0.033320002 0.71400005 4280288257
0.19297907 0.033413336 0.71600002 4279567105
0.19434287 0.033413336 0.71600002 4279435521
0.19570668 0.033413336 0.71600002 4279305217
0.19707049 0.033413336 0.71600002 4279108353
0.19871144 0.033460002 0.71700001 4278845953
0.20007716 0.033460002 0.71700001 4278583553
0.20200478 0.033553336 0.71900004 4278321409
0.2033743 0.033553336 0.71900004 4278583553
0.20474382 0.033553336 0.71900004 4278845697
0.20640001 0.033600003 0.72000003 4278845697
0.20834859 0.033693336 0.72200006 4278845697
0.2100143 0.033740003 0.72300005 4278911233
0.2119762 0.033833336 0.72500002 4278976769
0.21335715 0.033833336 0.72500002 4278845697
0.21473812 0.033833336 0.72500002 4278649089
0.21641716 0.033880003 0.72600001 4278583553
0.21750002 0.033833336 0.72500002 4278518017
0.21888097 0.033833336 0.72500002 4278583553
0.15231334 0.035797145 0.73700005 4278452481
0.15350859 0.035748575 0.73600006 4278452481
0.15448953 0.03565143 0.73400003 4278845697
0.15588763 0.03565143 0.73400003 4279238913
0.15685715 0.03555429 0.73200005 4279107841
0.15825143 0.03555429 0.73200005 4278976769
0.15942763 0.035505716 0.73100001 4278911233
0.15972 0.03526286 0.72600001 4278911233
0.16110286 0.03526286 0.72600001 4279435521
0.16226192 0.035214286 0.72500002 4280025345
0.16364287 0.035214286 0.72500002 4279566593
0.16456859 0.035117146 0.72300005 4279173377
0.1657162 0.035068575 0.72200006 4279042305
0.16709144 0.035068575 0.72200006 4278976769
0.16800001 0.034971431 0.72000003 4279238913
0.16937144 0.034971431 0.72000003 4279501057
0.17050573 0.034922861 0.71900004 4279304449
0.17187525 0.034922861 0.71900004 4279173377
0.17324477 0.034922861 0.71900004 4278911233
0.1746143 0.034922861 0.71900004 4278649089
0.1754943 0.034825716 0.71700001 4279304449
0.17686 0.034825716 0.71700001 4280025345
0.17797716 0.034777146 0.71600002 4279828737
0.17934096 0.034777146 0.71600002 4279632129
0.18020001 0.034680001 0.71400005 4279697665
0.18156001 0.034680001 0.71400005 4279763201
0.18292001 0.034680001 0.71400005 4280025345
0.18428001 0.034680001 0.71400005 4280287489
0.18564001 0.034680001 0.71400005 4280091905
0.18700001 0.034680001 0.71400005 4279963137
0.18836001 0.034680001 0.71400005 4280092673
0.18972002 0.034680001 0.71400005 4280222465
0.19108002 0.034680001 0.71400005 4279697921
0.19244002 0.034680001 0.71400005 4279173377
0.19434287 0.034777146 0.71600002 4279042305
0.19570668 0.034777146 0.71600002 4278976769
0.19734573 0.034825716 0.71700001 4278845953
0.19871144 0.034825716 0.71700001 4278780161
0.20063525 0.034922861 0.71900004 4278583553
0.20200478 0.034922861 0.71900004 4278452481
0.2033743 0.034922861 0.71900004 4278845697
0.20502858 0.034971431 0.72000003 4279173377
0.20640001 0.034971431 0.72000003 4279042305
0.20834859 0.035068575 0.72200006 4278911233
0.2100143 0.035117146 0.72300005 4279107841
0.2119762 0.035214286 0.72500002 4279369985
0.21335715 0.035214286 0.72500002 4278976769
0.21473812 0.035214286 0.72500002 4278649089
0.21611907 0.035214286 0.72500002 4278649089
0.21780002 0.03526286 0.72600001 4278583553
0.21918288 0.03526286 0.72600001 4278714625
0.15231334 0.037200954 0.73700005 4278518017
0.15371716 0.037200954 0.73700005 4278386945
0.15448953 0.037049524 0.73400003 4278649090
0.15588763 0.037049524 0.73400003 4278911233
0.15685715 0.036948573 0.73200005 4278976769
0.15825143 0.036948573 0.73200005 4278976769
0.15942763 0.036898099 0.73100001 4279173377
0.16038001 0.036797144 0.72900003 4279369985
0.16110286 0.036645718 0.72600001 4279435521
0.16226192 0.03659524 0.72500002 4279501057
0.16364287 0.03659524 0.72500002 4279435521
0.16456859 0.036494289 0.72300005 4279304449
0.1657162 0.036443811 0.72200006 4279173377
0.16709144 0.036443811 0.72200006 4278976769
0.16800001 0.036342859 0.72000003 4279304449
0.16937144 0.036342859 0.72000003 4279632129
0.17074287 0.036342859 0.72000003 4279304449
0.17187525 0.036292382 0.71900004 4278976769
0.17324477 0.036292382 0.71900004 4278976769
0.1746143 0.036292382 0.71900004 4278976769
0.1754943 0.03619143 0.71700001 4279173377
0.17686 0.03619143 0.71700001 4279304449
0.17822573 0.03619143 0.71700001 4279369985
0.17934096 0.036140956 0.71600002 4279369985
0.18070477 0.036140956 0.71600002 4279632129
0.18156001 0.036040001 0.71400005 4279894275
0.18292001 0.036040001 0.71400005 4280549893
0.18428001 0.036040001 0.71400005 4281139715
0.18564001 0.036040001 0.71400005 4280550146
0.18700001 0.036040001 0.71400005 4279960833
0.18836001 0.036040001 0.71400005 4279697665
0.18972002 0.036040001 0.71400005 4279370241
0.19108002 0.036040001 0.71400005 4279107841
0.19297907 0.036140956 0.71600002 4278780161
0.19434287 0.036140956 0.71600002 4278714625
0.19570668 0.036140956 0.71600002 4278583553
0.19734573 0.03619143 0.71700001 4278649089
0.19871144 0.03619143 0.71700001 4278649089
0.20063525 0.036292382 0.71900004 4278649089
0.20200478 0.036292382 0.71900004 4278583553
0.2033743 0.036292382 0.71900004 4279042305
0.20502858 0.036342859 0.72000003 4279501058
0.20640001 0.036342859 0.72000003 4279238915
0.20834859 0.036443811 0.72200006 4278976770
0.2100143 0.036494289 0.72300005 4279370241
0.21139145 0.036494289 0.72300005 4279697665
0.21335715 0.03659524 0.72500002 4279173377
0.21473812 0.03659524 0.72500002 4278649089
0.21641716 0.036645718 0.72600001 4278649089
0.21780002 0.036645718 0.72600001 4278649089
0.21918288 0.036645718 0.72600001 4278911233
0.15231334 0.038604766 0.73700005 4278452481
0.15371716 0.038604766 0.73700005 4278386946
0.15448953 0.038447622 0.73400003 4278583554
0.15588763 0.038447622 0.73400003 4278780162
0.15685715 0.03834286 0.73200005 4278911233
0.15825143 0.03834286 0.73200005 4278976769
0.15899144 0.038185716 0.72900003 4279042305
0.16016001 0.038133334 0.72800004 4279173377
0.16110286 0.038028575 0.72600001 4279173377
0.16226192 0.037976194 0.72500002 4279173377
0.16364287 0.037976194 0.72500002 4279107841
0.16456859 0.037871432 0.72300005 4279107841
0.1657162 0.03781905 0.72200006 4279042305
0.16709144 0.03781905 0.72200006 4278976769
0.16800001 0.037714288 0.72000003 4279435521
0.16937144 0.037714288 0.72000003 4279894273
0.17074287 0.037714288 0.72000003 4279304449
0.17187525 0.037661906 0.71900004 4278714625
0.17324477 0.037661906 0.71900004 4278845697
0.1746143 0.037661906 0.71900004 4278976769
0.1754943 0.037557144 0.71700001 4278976769
0.17686 0.037557144 0.71700001 4278976769
0.17822573 0.037557144 0.71700001 4279632129
0.17934096 0.037504766 0.71600002 4280287489
0.18070477 0.037504766 0.71600002 4280090881
0.18206859 0.037504766 0.71600002 4279894277
0.1834324 0.037504766 0.71600002 4280090888
0.1847962 0.037504766 0.71600002 4280221957
0.18564001 0.037400004 0.71400005 4279828994
0.18700001 0.037400004 0.71400005 4279435522
0.18836001 0.037400004 0.71400005 4279304449
0.18972002 0.037400004 0.71400005 4279107841
0.19161525 0.037504766 0.71600002 4278911233
0.19297907 0.037504766 0.71600002 4278714625
0.19434287 0.037504766 0.71600002 4278583553
0.19598001 0.037557144 0.71700001 4278452481
0.19734573 0.037557144 0.71700001 4278518017
0.19926573 0.037661906 0.71900004 4278583553
0.20063525 0.037661906 0.71900004 4278518017
0.20200478 0.037661906 0.71900004 4278452481
0.20365715 0.037714288 0.72000003 4278780161
0.20502858 0.037714288 0.72000003 4279042307
0.20697334 0.03781905 0.72200006 4278911236
0.20834859 0.03781905 0.72200006 4278845699
0.2100143 0.037871432 0.72300005 4278976769
0.21139145 0.037871432 0.72300005 4279173377
0.21335715 0.037976194 0.72500002 4278845953
0.21473812 0.037976194 0.72500002 4278452737
0.21611907 0.037976194 0.72500002 4278518273
0.21750002 0.037976194 0.72500002 4278518017
0.15371716 0.040008575 0.73700005 4278321409
0.15448953 0.039845716 0.73400003 4278518018
0.15588763 0.039845716 0.73400003 4278649089
0.15685715 0.039737146 0.73200005 4278845697
