# .PCD v0.7 - Point Cloud Data file format
VERSION 0.7
FIELDS x y z rgba
SIZE 4 4 4 4
TYPE F F F U
COUNT 1 1 1 1
WIDTH 1037
HEIGHT 1
VIEWPOINT 0 0 0 1 0 0 0
POINTS 1037
DATA ascii
-0.083969526 0.044838097 0.85600007 4281271297
-0.082531437 0.04494286 0.85800004 4281142787
-0.080897145 0.04494286 0.85800004 4281077765
-0.07926286 0.04494286 0.85800004 4281013765
-0.15298192 0.045654289 0.84100002 4288390339
-0.15138 0.045654289 0.84100002 4290620607
-0.1501343 0.045762859 0.84300005 4290291644
-0.14852858 0.045762859 0.84300005 4289963703
-0.14692287 0.045762859 0.84300005 4290357682
-0.14566192 0.045871433 0.84500003 4290752945
-0.14371143 0.045762859 0.84300005 4291344561
-0.14210573 0.045762859 0.84300005 4291933365
-0.14050001 0.045762859 0.84300005 4291475130
-0.13889429 0.045762859 0.84300005 4291015095
-0.13728859 0.045762859 0.84300005 4290816693
-0.13600478 0.045871433 0.84500003 4290620600
-0.13439524 0.045871433 0.84500003 4290751163
-0.13278572 0.045871433 0.84500003 4290884277
-0.1311762 0.045871433 0.84500003 4290753455
-0.12956667 0.045871433 0.84500003 4290622641
-0.12841144 0.046034288 0.84800005 4290951347
-0.1267962 0.046034288 0.84800005 4291212982
-0.12518096 0.046034288 0.84800005 4291147705
-0.12356573 0.046034288 0.84800005 4291082169
-0.12195048 0.046034288 0.84800005 4291214010
-0.12061906 0.046142861 0.85000002 4291344561
-0.11900001 0.046142861 0.85000002 4291344552
-0.11738096 0.046142861 0.85000002 4291343019
-0.11576191 0.046142861 0.85000002 4291606959
-0.11414286 0.046142861 0.85000002 4291801773
-0.11278858 0.046251431 0.85200006 4291541931
-0.11116572 0.046251431 0.85200006 4291211947
-0.10954286 0.046251431 0.85200006 4291081386
-0.10792001 0.046251431 0.85200006 4290949298
-0.10629715 0.046251431 0.85200006 4290556346
-0.10467429 0.046251431 0.85200006 4290161590
-0.10329334 0.046360005 0.85400003 4290165427
-0.10166667 0.046360005 0.85400003 4290095792
-0.09980572 0.046251431 0.85200006 4290098349
-0.098182864 0.046251431 0.85200006 4290095287
-0.096560009 0.046251431 0.85200006 4289838274
-0.094937146 0.046251431 0.85200006 4289568192
-0.09331429 0.046251431 0.85200006 4289376190
-0.091691434 0.046251431 0.85200006 4289109940
-0.090068579 0.046251431 0.85200006 4288980139
-0.088445723 0.046251431 0.85200006 4288776818
-0.087026671 0.046360005 0.85400003 4284967482
-0.085400008 0.046360005 0.85400003 4281081118
-0.083969526 0.046468575 0.85600007 4281270529
-0.082339056 0.046468575 0.85600007 4281404674
-0.080897145 0.046577144 0.85800004 4281208835
-0.079447627 0.046685718 0.86000001 4281013507
-0.15298192 0.047256194 0.84100002 4288456394
-0.15138 0.047256194 0.84100002 4290689734
-0.1501343 0.047368575 0.84300005 4290228161
-0.14852858 0.047368575 0.84300005 4289702843
-0.14692287 0.047368575 0.84300005 4289834932
-0.14566192 0.047480956 0.84500003 4289970112
-0.14371143 0.047368575 0.84300005 4290164683
-0.14210573 0.047368575 0.84300005 4290364108
-0.14050001 0.047368575 0.84300005 4290034124
-0.13889429 0.047368575 0.84300005 4289774536
-0.13728859 0.047368575 0.84300005 4289507780
-0.13600478 0.047480956 0.84500003 4289312963
-0.13439524 0.047480956 0.84500003 4289310657
-0.13278572 0.047480956 0.84500003 4289315521
-0.1311762 0.047480956 0.84500003 4289244865
-0.12956667 0.047480956 0.84500003 4289182139
-0.12795715 0.047480956 0.84500003 4289441204
-0.1267962 0.047649525 0.84800005 4289706677
-0.12518096 0.047649525 0.84800005 4289506997
-0.12356573 0.047649525 0.84800005 4289377205
-0.12195048 0.047649525 0.84800005 4289309621
-0.12061906 0.04776191 0.85000002 4289247925
-0.11900001 0.04776191 0.85000002 4289242293
-0.11738096 0.04776191 0.85000002 4289242807
-0.11576191 0.04776191 0.85000002 4289372857
-0.11414286 0.04776191 0.85000002 4289505971
-0.11252382 0.04776191 0.85000002 4289307821
-0.11116572 0.04787429 0.85200006 4289177772
-0.10954286 0.04787429 0.85200006 4289045162
-0.10766667 0.04776191 0.85000002 4288914862
-0.10604762 0.04776191 0.85000002 4288453810
-0.10442858 0.04776191 0.85000002 4288058538
-0.10280953 0.04776191 0.85000002 4287794337
-0.10142858 0.04787429 0.85200006 4287595419
-0.09980572 0.04787429 0.85200006 4287202709
-0.098182864 0.04787429 0.85200006 4286808230
-0.096560009 0.04787429 0.85200006 4286477494
-0.094937146 0.04787429 0.85200006 4286138284
-0.09331429 0.04787429 0.85200006 4286145954
-0.091691434 0.04787429 0.85200006 4286142354
-0.090068579 0.04787429 0.85200006 4286081922
-0.088445723 0.04787429 0.85200006 4286076994
-0.08682286 0.04787429 0.85200006 4284041217
-0.085200004 0.04787429 0.85200006 4281993473
-0.083773337 0.047986671 0.85400003 4281665793
-0.082339056 0.048099052 0.85600007 4281340673
-0.080708578 0.048099052 0.85600007 4281144321
-0.079447627 0.048323814 0.86000001 4280948481
-0.15138 0.048858099 0.84100002 4290752939
-0.1501343 0.04897429 0.84300005 4290096793
-0.14852858 0.04897429 0.84300005 4289437594
-0.14692287 0.04897429 0.84300005 4289308827
-0.14531715 0.04897429 0.84300005 4289109662
-0.14371143 0.04897429 0.84300005 4288979873
-0.14210573 0.04897429 0.84300005 4288781985
-0.14050001 0.04897429 0.84300005 4288653473
-0.13889429 0.04897429 0.84300005 4288453024
-0.13728859 0.04897429 0.84300005 4288192415
-0.13600478 0.049090479 0.84500003 4287925402
-0.13439524 0.049090479 0.84500003 4287862421
-0.13278572 0.049090479 0.84500003 4287728016
-0.1311762 0.049090479 0.84500003 4287728012
-0.12956667 0.049090479 0.84500003 4287728778
-0.12795715 0.049090479 0.84500003 4287924105
-0.12634763 0.049090479 0.84500003 4288123526
-0.1247381 0.049090479 0.84500003 4287861379
-0.12356573 0.049264766 0.84800005 4287598978
-0.12151906 0.049090479 0.84500003 4287399041
-0.12033524 0.049264766 0.84800005 4287139200
-0.11872001 0.049264766 0.84800005 4287133824
-0.11738096 0.049380954 0.85000002 4287072131
-0.11576191 0.049380954 0.85000002 4287135879
-0.11414286 0.049380954 0.85000002 4287138694
-0.11252382 0.049380954 0.85000002 4287136645
-0.11090477 0.049380954 0.85000002 4287139718
-0.10928572 0.049380954 0.85000002 4287006599
-0.10766667 0.049380954 0.85000002 4286811525
-0.10604762 0.049380954 0.85000002 4286416260
-0.10442858 0.049380954 0.85000002 4285955194
-0.10280953 0.049380954 0.85000002 4285488497
-0.10119049 0.049380954 0.85000002 4285033061
-0.099571437 0.049380954 0.85000002 4284308825
-0.097952388 0.049380954 0.85000002 4283523419
-0.09633334 0.049380954 0.85000002 4283124828
-0.094714291 0.049380954 0.85000002 4282666327
-0.09331429 0.049497146 0.85200006 4282926930
-0.091691434 0.049497146 0.85200006 4283127121
-0.089857146 0.049380954 0.85000002 4283259473
-0.088445723 0.049497146 0.85200006 4283325488
-0.08682286 0.049497146 0.85200006 4283127056
-0.085200004 0.049497146 0.85200006 4282854920
-0.083577149 0.049497146 0.85200006 4282058753
-0.082146674 0.049613338 0.85400003 4281208577
-0.080520004 0.049613338 0.85400003 4281079042
-0.078893341 0.049613338 0.85400003 4280882945
-0.15138 0.050460003 0.84100002 4287929489
-0.1497781 0.050460003 0.84100002 4287269233
-0.14817619 0.050460003 0.84100002 4286675833
-0.14657429 0.050460003 0.84100002 4286478721
-0.14497238 0.050460003 0.84100002 4286279548
-0.14337048 0.050460003 0.84100002 4286215031
-0.14176857 0.050460003 0.84100002 4286146934
-0.14016667 0.050460003 0.84100002 4286148469
-0.13856477 0.050460003 0.84100002 4286142840
-0.13696286 0.050460003 0.84100002 4286080122
-0.13568287 0.050580002 0.84300005 4286006130
-0.13407715 0.050580002 0.84300005 4286013545
-0.13247144 0.050580002 0.84300005 4286071136
-0.13086572 0.050580002 0.84300005 4286342998
-0.12926 0.050580002 0.84300005 4286604634
-0.1276543 0.050580002 0.84300005 4286871134
-0.12604858 0.050580002 0.84300005 4287132503
-0.1247381 0.050700005 0.84500003 4287070288
-0.12312858 0.050700005 0.84500003 4286937423
-0.12151906 0.050700005 0.84500003 4287004237
-0.11990953 0.050700005 0.84500003 4287069260
-0.11872001 0.050880004 0.84800005 4287069258
-0.11710477 0.050880004 0.84800005 4287135311
-0.11548954 0.050880004 0.84800005 4287136084
-0.11387429 0.050880004 0.84800005 4287201113
-0.11252382 0.051000003 0.85000002 4287267933
-0.11090477 0.051000003 0.85000002 4287400032
-0.10928572 0.051000003 0.85000002 4287268963
-0.10766667 0.051000003 0.85000002 4287136861
-0.1057981 0.050880004 0.84800005 4286742870
-0.10418286 0.050880004 0.84800005 4286347339
-0.10256763 0.050880004 0.84800005 4286278464
-0.10095239 0.050880004 0.84800005 4286277935
-0.099337146 0.050880004 0.84800005 4285096221
-0.097721912 0.050880004 0.84800005 4283915024
-0.096106671 0.050880004 0.84800005 4283717378
-0.094714291 0.051000003 0.85000002 4283586562
-0.093095243 0.051000003 0.85000002 4283783169
-0.091476195 0.051000003 0.85000002 4283980816
-0.089857146 0.051000003 0.85000002 4283982367
-0.08803048 0.050880004 0.84800005 4284049951
-0.086415246 0.050880004 0.84800005 4283785246
-0.085000008 0.051000003 0.85000002 4283585040
-0.08338096 0.051000003 0.85000002 4282195201
-0.081954293 0.051120002 0.85200006 4280814338
-0.080331437 0.051120002 0.85200006 4280947202
-0.15102001 0.051938098 0.83900005 4285100884
-0.1497781 0.052061908 0.84100002 4284505920
-0.14817619 0.052061908 0.84100002 4283851077
-0.14657429 0.052061908 0.84100002 4283650378
-0.14462763 0.051938098 0.83900005 4283456334
-0.14302953 0.051938098 0.83900005 4283518802
-0.14143144 0.051938098 0.83900005 4283521106
-0.13983335 0.051938098 0.83900005 4283716177
-0.13823524 0.051938098 0.83900005 4283849034
-0.13631144 0.051814288 0.83700001 4283979331
-0.13536096 0.052061908 0.84100002 4284045903
-0.13407715 0.052185718 0.84300005 4284245082
-0.13215715 0.052061908 0.84100002 4284440917
-0.13055524 0.052061908 0.84100002 4284968528
-0.12895334 0.052061908 0.84100002 4285427539
-0.1276543 0.052185718 0.84300005 4285822806
-0.12604858 0.052185718 0.84300005 4286151255
-0.12444287 0.052185718 0.84300005 4286218583
-0.12283715 0.052185718 0.84300005 4286282327
-0.12123144 0.052185718 0.84300005 4286611031
-0.11990953 0.052309528 0.84500003 4286938196
-0.11830001 0.052309528 0.84500003 4287069521
-0.11669049 0.052309528 0.84500003 4287136081
-0.11508096 0.052309528 0.84500003 4287202898
-0.11387429 0.052495241 0.84800005 4287201877
-0.11225905 0.052495241 0.84800005 4287464792
-0.11064382 0.052495241 0.84800005 4287662170
-0.10902858 0.052495241 0.84800005 4287597661
-0.10741334 0.052495241 0.84800005 4287465042
-0.1057981 0.052495241 0.84800005 4287070791
-0.10381429 0.052309528 0.84500003 4286675267
-0.10220477 0.052309528 0.84500003 4287131199
-0.10095239 0.052495241 0.84800005 4287522607
-0.099337146 0.052495241 0.84800005 4285883423
-0.097721912 0.052495241 0.84800005 4284244506
-0.096106671 0.052495241 0.84800005 4284374037
-0.094491437 0.052495241 0.84800005 4284506125
-0.092876196 0.052495241 0.84800005 4284637958
-0.091260955 0.052495241 0.84800005 4284770068
-0.089645721 0.052495241 0.84800005 4284770595
-0.087719053 0.052309528 0.84500003 4284771369
-0.086109526 0.052309528 0.84500003 4284509487
-0.084800005 0.052495241 0.84800005 4284238360
-0.083184764 0.052495241 0.84800005 4282322433
-0.081280954 0.052309528 0.84500003 4280422405
-0.15102001 0.053536195 0.83900005 4285031959
-0.14942192 0.053536195 0.83900005 4284637454
-0.14782383 0.053536195 0.83900005 4284242448
-0.14622572 0.053536195 0.83900005 4284111122
-0.14462763 0.053536195 0.83900005 4283980576
-0.14268859 0.053408574 0.83700001 4283980077
-0.14143144 0.053536195 0.83900005 4284044333
-0.13950001 0.053408574 0.83700001 4284177197
-0.13790572 0.053408574 0.83700001 4284244253
-0.13631144 0.053408574 0.83700001 4284244748
-0.13503906 0.053536195 0.83900005 4284181292
-0.13375905 0.053663813 0.84100002 4284443211
-0.13215715 0.053663813 0.84100002 4284641098
-0.13024478 0.053536195 0.83900005 4284968777
-0.12895334 0.053663813 0.84100002 4285297484
-0.12735143 0.053663813 0.84100002 4285625678
-0.12604858 0.053791434 0.84300005 4285955158
-0.12444287 0.053791434 0.84300005 4286019934
-0.12283715 0.053791434 0.84300005 4286083424
-0.12123144 0.053791434 0.84300005 4286347617
-0.11962572 0.053791434 0.84300005 4286610012
-0.11802001 0.053791434 0.84300005 4286741847
-0.11669049 0.053919051 0.84500003 4286808660
-0.11480858 0.053791434 0.84300005 4286873424
-0.11347143 0.053919051 0.84500003 4286938193
-0.11186191 0.053919051 0.84500003 4286873682
-0.11025239 0.053919051 0.84500003 4286874964
-0.10864286 0.053919051 0.84500003 4286874966
-0.10703334 0.053919051 0.84500003 4286874951
-0.10542382 0.053919051 0.84500003 4286545720
-0.10381429 0.053919051 0.84500003 4286282811
-0.10220477 0.053919051 0.84500003 4286213694
-0.10059524 0.053919051 0.84500003 4286145072
-0.098985724 0.053919051 0.84500003 4285359905
-0.097376198 0.053919051 0.84500003 4284574500
-0.095766671 0.053919051 0.84500003 4284639015
-0.094157152 0.053919051 0.84500003 4284705049
-0.092876196 0.054110479 0.84800005 4284836874
-0.091260955 0.054110479 0.84800005 4285035544
-0.08932858 0.053919051 0.84500003 4285230886
-0.087719053 0.053919051 0.84500003 4285493043
-0.086109526 0.053919051 0.84500003 4284967487
-0.084500007 0.053919051 0.84500003 4284504864
-0.082890481 0.053919051 0.84500003 4282591233
-0.081280954 0.053919051 0.84500003 4280685321
-0.079294294 0.053663813 0.84100002 4281013520
-0.15102001 0.055134289 0.83900005 4284965930
-0.14942192 0.055134289 0.83900005 4284835109
-0.14782383 0.055134289 0.83900005 4284637212
-0.14622572 0.055134289 0.83900005 4284571410
-0.14428286 0.055002861 0.83700001 4284440867
-0.14268859 0.055002861 0.83700001 4284507955
-0.1410943 0.055002861 0.83700001 4284571708
-0.13950001 0.055002861 0.83700001 4284638021
-0.13790572 0.055002861 0.83700001 4284638260
-0.13631144 0.055002861 0.83700001 4284508196
-0.13503906 0.055134289 0.83900005 4284311605
-0.13344096 0.055134289 0.83900005 4284574022
-0.13184287 0.055134289 0.83900005 4284836415
-0.13024478 0.055134289 0.83900005 4284968248
-0.12864667 0.055134289 0.83900005 4285099324
-0.12704858 0.055134289 0.83900005 4285426752
-0.12574953 0.055265717 0.84100002 4285690951
-0.12385239 0.055134289 0.83900005 4285822030
-0.12254572 0.055265717 0.84100002 4285887828
-0.12094381 0.055265717 0.84100002 4286085466
-0.11934191 0.055265717 0.84100002 4286282074
-0.11774001 0.055265717 0.84100002 4286413147
-0.11641429 0.055397145 0.84300005 4286478935
-0.11480858 0.055397145 0.84300005 4286544212
-0.11320286 0.055397145 0.84300005 4286609748
-0.11159715 0.055397145 0.84300005 4286347349
-0.10999144 0.055397145 0.84300005 4286020692
-0.10838572 0.055397145 0.84300005 4286152275
-0.10703334 0.055528574 0.84500003 4286283075
-0.10542382 0.055528574 0.84500003 4286085170
-0.10356858 0.055397145 0.84300005 4285822010
-0.10220477 0.055528574 0.84500003 4285295681
-0.10059524 0.055528574 0.84500003 4284770103
-0.098985724 0.055528574 0.84500003 4284836397
-0.097376198 0.055528574 0.84500003 4284836398
-0.095766671 0.055528574 0.84500003 4284836400
-0.094157152 0.055528574 0.84500003 4284836646
-0.092547625 0.055528574 0.84500003 4285034269
-0.090938099 0.055528574 0.84500003 4285231147
-0.08932858 0.055528574 0.84500003 4285689912
-0.087511435 0.055397145 0.84300005 4286148413
-0.085905723 0.055397145 0.84300005 4285493569
-0.084500007 0.055528574 0.84500003 4284765729
-0.082890481 0.055528574 0.84500003 4282852609
-0.08108858 0.055397145 0.84300005 4280883207
-0.079294294 0.055265717 0.84100002 4281144332
-0.077692389 0.055265717 0.84100002 4281406998
-0.15030001 0.056461908 0.83500004 4284967230
-0.14906572 0.056597147 0.83700001 4284835132
-0.14747144 0.056597147 0.83700001 4284703527
-0.14587715 0.056597147 0.83700001 4284572434
-0.14428286 0.056597147 0.83700001 4284507174
-0.14234763 0.056461908 0.83500004 4284703801
-0.14075716 0.056461908 0.83500004 4284900171
-0.13916668 0.056461908 0.83500004 4284703580
-0.13757619 0.056461908 0.83500004 4284572492
-0.13598572 0.056461908 0.83500004 4284572732
-0.13471715 0.056597147 0.83700001 4284506942
-0.13344096 0.056732386 0.83900005 4284638272
-0.13184287 0.056732386 0.83900005 4284834612
-0.1299343 0.056597147 0.83700001 4284900903
-0.12834001 0.056597147 0.83700001 4285032493
-0.12674572 0.056597147 0.83700001 4285230386
-0.12545048 0.056732386 0.83900005 4285493816
-0.12385239 0.056732386 0.83900005 4285625149
-0.1222543 0.056732386 0.83900005 4285757256
-0.1206562 0.056732386 0.83900005 4285888594
-0.1190581 0.056732386 0.83900005 4286085209
-0.11746 0.056732386 0.83900005 4286019423
-0.1161381 0.056867622 0.84100002 4286018907
-0.11426382 0.056732386 0.83900005 4286019415
-0.11266572 0.056732386 0.83900005 4286019671
-0.11133239 0.056867622 0.84100002 4285888343
-0.10999144 0.057002861 0.84300005 4285822548
-0.10838572 0.057002861 0.84300005 4285888080
-0.10678001 0.057002861 0.84300005 4285953854
-0.1051743 0.057002861 0.84300005 4285690668
-0.10356858 0.057002861 0.84300005 4285493048
-0.10196286 0.057002861 0.84300005 4285098564
-0.10035715 0.057002861 0.84300005 4284769598
-0.098751433 0.057002861 0.84300005 4284770104
-0.097145721 0.057002861 0.84300005 4284835896
-0.095540009 0.057002861 0.84300005 4284836152
-0.09393429 0.057002861 0.84300005 4284835892
-0.092328578 0.057002861 0.84300005 4284901936
-0.090722866 0.057002861 0.84300005 4285033277
-0.089117147 0.057002861 0.84300005 4285230154
-0.087511435 0.057002861 0.84300005 4285426759
-0.085905723 0.057002861 0.84300005 4285033795
-0.084300004 0.057002861 0.84300005 4284638498
-0.082694292 0.057002861 0.84300005 4282790401
-0.080896199 0.056867622 0.84100002 4281013509
-0.07910572 0.056732386 0.83900005 4281275144
-0.077507623 0.056732386 0.83900005 4281602319
-0.15030001 0.058052383 0.83500004 4284964914
-0.14870954 0.058052383 0.83500004 4284834606
-0.14711906 0.058052383 0.83500004 4284703521
-0.14552858 0.058052383 0.83500004 4284638229
-0.14393811 0.058052383 0.83500004 4284572453
-0.14234763 0.058052383 0.83500004 4284899638
-0.14075716 0.058052383 0.83500004 4285162054
-0.13916668 0.058052383 0.83500004 4284834133
-0.13757619 0.058052383 0.83500004 4284506694
-0.13598572 0.058052383 0.83500004 4284637752
-0.13471715 0.058191434 0.83700001 4284703547
-0.13312286 0.058191434 0.83700001 4284768830
-0.13152859 0.058191434 0.83700001 4284769079
-0.1299343 0.058191434 0.83700001 4284834097
-0.12834001 0.058191434 0.83700001 4284901427
-0.12674572 0.058191434 0.83700001 4285099829
-0.12515144 0.058191434 0.83700001 4285231154
-0.12355715 0.058191434 0.83700001 4285427759
-0.12196287 0.058191434 0.83700001 4285559355
-0.12036858 0.058191434 0.83700001 4285691463
-0.11877429 0.058191434 0.83700001 4285823055
-0.11718 0.058191434 0.83700001 4285691479
-0.11586192 0.05833048 0.83900005 4285494097
-0.11399144 0.058191434 0.83700001 4285429323
-0.11239715 0.058191434 0.83700001 4285363786
-0.11106762 0.05833048 0.83900005 4285494858
-0.10946953 0.05833048 0.83900005 4285624390
-0.10812858 0.058469526 0.84100002 4285623106
-0.10652667 0.058469526 0.84100002 4285624888
-0.1051743 0.058608577 0.84300005 4285361710
-0.10356858 0.058608577 0.84300005 4285098807
-0.10172096 0.058469526 0.84100002 4284901440
-0.10011905 0.058469526 0.84100002 4284704574
-0.09851715 0.058469526 0.84100002 4284769851
-0.096915245 0.058469526 0.84100002 4284835898
-0.09531334 0.058469526 0.84100002 4284835898
-0.093711436 0.058469526 0.84100002 4284770348
-0.092109531 0.058469526 0.84100002 4284835615
-0.090722866 0.058608577 0.84300005 4284836142
-0.089117147 0.058608577 0.84300005 4284770366
-0.087511435 0.058608577 0.84300005 4284705346
-0.085905723 0.058608577 0.84300005 4284575815
-0.084300004 0.058608577 0.84300005 4284439332
-0.082498103 0.058469526 0.84100002 4282787841
-0.080896199 0.058469526 0.84100002 4281147139
-0.07910572 0.05833048 0.83900005 4281471237
-0.077322863 0.058191434 0.83700001 4281734152
-0.075728573 0.058191434 0.83700001 4281733900
-0.14835334 0.059500005 0.83300006 4285097503
-0.14711906 0.059642863 0.83500004 4285031195
-0.14518002 0.059500005 0.83300006 4284769303
-0.14359334 0.059500005 0.83300006 4284572709
-0.14200668 0.059500005 0.83300006 4284703283
-0.14042 0.059500005 0.83300006 4284834113
-0.13883334 0.059500005 0.83300006 4284506702
-0.13724667 0.059500005 0.83300006 4284178753
-0.13566001 0.059500005 0.83300006 4284441395
-0.13407335 0.059500005 0.83300006 4284769079
-0.13280477 0.059642863 0.83500004 4284769595
-0.13121429 0.059642863 0.83500004 4284835131
-0.1299343 0.05978572 0.83700001 4284900922
-0.12834001 0.05978572 0.83700001 4284966969
-0.12644286 0.059642863 0.83500004 4284967991
-0.12515144 0.05978572 0.83700001 4285034028
-0.12355715 0.05978572 0.83700001 4285164833
-0.12196287 0.05978572 0.83700001 4285360687
-0.12036858 0.05978572 0.83700001 4285493564
-0.11877429 0.05978572 0.83700001 4285561669
-0.11718 0.05978572 0.83700001 4285362510
-0.11558572 0.05978572 0.83700001 4285230151
-0.11399144 0.05978572 0.83700001 4285099839
-0.11239715 0.05978572 0.83700001 4284970046
-0.11080287 0.05978572 0.83700001 4285033788
-0.10920858 0.05978572 0.83700001 4285163576
-0.10787144 0.059928574 0.83900005 4285165363
-0.10627334 0.059928574 0.83900005 4285167666
-0.10492477 0.060071431 0.84100002 4284967984
-0.10332286 0.060071431 0.84100002 4284769590
-0.10172096 0.060071431 0.84100002 4284704316
-0.10011905 0.060071431 0.84100002 4284704573
-0.09851715 0.060071431 0.84100002 4284704830
-0.096684769 0.059928574 0.83900005 4284770877
-0.095086671 0.059928574 0.83900005 4284836667
-0.093488574 0.059928574 0.83900005 4284901669
-0.092109531 0.060071431 0.84100002 4284967182
-0.090507627 0.060071431 0.84100002 4285032992
-0.088905722 0.060071431 0.84100002 4284835889
-0.087303817 0.060071431 0.84100002 4284638526
-0.085701913 0.060071431 0.84100002 4284443722
-0.084100008 0.060071431 0.84100002 4284182310
-0.082498103 0.060071431 0.84100002 4282925313
-0.080703817 0.059928574 0.83900005 4281675265
-0.078917146 0.05978572 0.83700001 4281737473
-0.077322863 0.05978572 0.83700001 4281801217
-0.075547621 0.059642863 0.83500004 4281866497
-0.073957145 0.059642863 0.83500004 4281932289
-0.14835334 0.06108667 0.83300006 4285361450
-0.14676668 0.06108667 0.83300006 4285294111
-0.14518002 0.06108667 0.83300006 4284900115
-0.14359334 0.06108667 0.83300006 4284506662
-0.14200668 0.06108667 0.83300006 4284506169
-0.14008287 0.060940005 0.83100003 4284440649
-0.13883334 0.06108667 0.83300006 4284113753
-0.13724667 0.06108667 0.83300006 4283786055
-0.1353343 0.060940005 0.83100003 4284310837
-0.13375144 0.060940005 0.83100003 4284770113
-0.13248667 0.06108667 0.83300006 4284836686
-0.13090001 0.06108667 0.83300006 4284901701
-0.12962382 0.061233338 0.83500004 4284966973
-0.12803334 0.061233338 0.83500004 4285033019
-0.12644286 0.061233338 0.83500004 4284902457
-0.12485239 0.061233338 0.83500004 4284771638
-0.12326191 0.061233338 0.83500004 4284968244
-0.12167144 0.061233338 0.83500004 4285163833
-0.12008096 0.061233338 0.83500004 4285228863
-0.11849049 0.061233338 0.83500004 4285295681
-0.1169 0.061233338 0.83500004 4285098052
-0.11530953 0.061233338 0.83500004 4284901174
-0.11371905 0.061233338 0.83500004 4284703785
-0.11212858 0.061233338 0.83500004 4284507951
-0.1105381 0.061233338 0.83500004 4284572214
-0.10920858 0.061380003 0.83700001 4284639016
-0.10761429 0.061380003 0.83700001 4284641306
-0.10602 0.061380003 0.83700001 4284640551
-0.10467525 0.061526671 0.83900005 4284507443
-0.10307715 0.061526671 0.83900005 4284376375
-0.10147905 0.061526671 0.83900005 4284507452
-0.099880956 0.061526671 0.83900005 4284639293
-0.098282866 0.061526671 0.83900005 4284639806
-0.096454293 0.061380003 0.83700001 4284640321
-0.09486001 0.061380003 0.83700001 4284837700
-0.09326572 0.061380003 0.83700001 4284967472
-0.091671437 0.061380003 0.83700001 4285098012
-0.089861907 0.061233338 0.83500004 4285229350
-0.088271432 0.061233338 0.83500004 4284901680
-0.086888574 0.061380003 0.83700001 4284574255
-0.085294291 0.061380003 0.83700001 4284247342
-0.083700009 0.061380003 0.83700001 4283916577
-0.082105719 0.061380003 0.83700001 4283056148
-0.080319054 0.061233338 0.83500004 4282134797
-0.078728579 0.061233338 0.83500004 4282001926
-0.076953337 0.06108667 0.83300006 4281868303
-0.075366668 0.06108667 0.83300006 4281998873
-0.14728478 0.062221907 0.82700002 4285033013
-0.14606191 0.062372386 0.82900006 4284834594
-0.14483143 0.062522858 0.83100003 4284572175
-0.14290382 0.062372386 0.82900006 4284310055
-0.14132477 0.062372386 0.82900006 4284309054
-0.13974573 0.062372386 0.82900006 4284308049
-0.13816668 0.062372386 0.82900006 4284178020
-0.13658763 0.062372386 0.82900006 4284113230
-0.13500857 0.062372386 0.82900006 4284376631
-0.13342953 0.062372386 0.82900006 4284705356
-0.13248667 0.062673338 0.83300006 4284836704
-0.13090001 0.062673338 0.83300006 4284968016
-0.12931333 0.062673338 0.83300006 4285033280
-0.12772667 0.062673338 0.83300006 4285098814
-0.12614001 0.062673338 0.83300006 4284967739
-0.12455335 0.062673338 0.83300006 4284902465
-0.12296668 0.062673338 0.83300006 4285098310
-0.12138001 0.062673338 0.83300006 4285294148
-0.11979334 0.062673338 0.83300006 4285163329
-0.11820667 0.062673338 0.83300006 4285097277
-0.1169 0.062823817 0.83500004 4284900921
-0.11530953 0.062823817 0.83500004 4284769318
-0.11371905 0.062823817 0.83500004 4284310546
-0.11212858 0.062823817 0.83500004 4283851297
-0.1105381 0.062823817 0.83500004 4284113968
-0.10894763 0.062823817 0.83500004 4284440857
-0.10761429 0.062974289 0.83700001 4284377089
-0.10602 0.062974289 0.83700001 4284377116
-0.10442572 0.062974289 0.83700001 4284310838
-0.10258572 0.062823817 0.83500004 4284310329
-0.10099524 0.062823817 0.83500004 4284376635
-0.099404767 0.062823817 0.83500004 4284442685
-0.097814292 0.062823817 0.83500004 4284574014
-0.09599334 0.062673338 0.83300006 4284705606
-0.094406672 0.062673338 0.83300006 4284771405
-0.093042865 0.062823817 0.83500004 4284901435
-0.09145239 0.062823817 0.83500004 4284967465
-0.089861907 0.062823817 0.83500004 4285098284
-0.088271432 0.062823817 0.83500004 4284836654
-0.086680956 0.062823817 0.83500004 4284640032
-0.085090481 0.062823817 0.83500004 4284311826
-0.083500005 0.062823817 0.83500004 4284049437
-0.08190953 0.062823817 0.83500004 4283255335
-0.080319054 0.062823817 0.83500004 4282526745
-0.078540005 0.062673338 0.83300006 4282262538
-0.076768577 0.062522858 0.83100003 4281999134
-0.14728478 0.063797146 0.82700002 4284704555
-0.14570953 0.063797146 0.82700002 4284375591
-0.1441343 0.063797146 0.82700002 4284244003
-0.14255905 0.063797146 0.82700002 4284112171
-0.14098382 0.063797146 0.82700002 4284111923
-0.13940857 0.063797146 0.82700002 4284112179
-0.13783334 0.063797146 0.82700002 4284242739
-0.13625811 0.063797146 0.82700002 4284375602
-0.13468286 0.063797146 0.82700002 4284507698
-0.13310763 0.063797146 0.82700002 4284639556
-0.13185048 0.063951433 0.82900006 4284836182
-0.13027143 0.063951433 0.82900006 4284968011
-0.12900287 0.064105719 0.83100003 4285099072
-0.12742001 0.064105719 0.83100003 4285164342
-0.12583715 0.064105719 0.83100003 4285098540
-0.12425429 0.064105719 0.83100003 4284967219
-0.12267144 0.064105719 0.83100003 4285162554
-0.12108858 0.064105719 0.83100003 4285360174
-0.11950573 0.064105719 0.83100003 4285164067
-0.11792286 0.064105719 0.83100003 4284901678
-0.11634001 0.064105719 0.83100003 4284769849
-0.11448096 0.063951433 0.82900006 4284572975
-0.11290191 0.063951433 0.82900006 4283851814
-0.11132286 0.063951433 0.82900006 4283131182
-0.11000858 0.064105719 0.83100003 4283656759
-0.10842572 0.064105719 0.83100003 4284180518
-0.10684286 0.064105719 0.83100003 4284114453
-0.10551334 0.064260006 0.83300006 4284048420
-0.10392667 0.064260006 0.83300006 4284113971
-0.10234001 0.064260006 0.83300006 4284179508
-0.10075334 0.064260006 0.83300006 4284245557
-0.099166676 0.064260006 0.83300006 4284245560
-0.097580008 0.064260006 0.83300006 4284508219
-0.09599334 0.064260006 0.83300006 4284705085
-0.094406672 0.064260006 0.83300006 4284771391
-0.092820004 0.064260006 0.83300006 4284836661
-0.091233343 0.064260006 0.83300006 4284902700
-0.089646675 0.064260006 0.83300006 4284902443
-0.088060006 0.064260006 0.83300006 4284771627
-0.086473338 0.064260006 0.83300006 4284639266
-0.08488667 0.064260006 0.83300006 4284376089
-0.083100006 0.064105719 0.83100003 4284113179
-0.081517145 0.064105719 0.83100003 4283519773
-0.079934292 0.064105719 0.83100003 4282857235
-0.078351431 0.064105719 0.83100003 4282456329
-0.076583818 0.063951433 0.82900006 4282063892
-0.14692858 0.065214291 0.82500005 4284506913
-0.14570953 0.065372385 0.82700002 4284047148
-0.1441343 0.065372385 0.82700002 4284177206
-0.1422143 0.065214291 0.82500005 4284241455
-0.14064287 0.065214291 0.82500005 4284308775
-0.13907143 0.065214291 0.82500005 4284375828
-0.1375 0.065214291 0.82500005 4284309761
-0.13592859 0.065214291 0.82500005 4284310807
-0.13435715 0.065214291 0.82500005 4284245804
-0.13278572 0.065214291 0.82500005 4284180796
-0.13153239 0.065372385 0.82700002 4284377164
-0.12995715 0.065372385 0.82700002 4284509510
-0.12838191 0.065372385 0.82700002 4284443199
-0.12680668 0.065372385 0.82700002 4284311854
-0.12523143 0.065372385 0.82700002 4284442652
-0.1236562 0.065372385 0.82700002 4284639525
-0.12208096 0.065372385 0.82700002 4284770861
-0.12050572 0.065372385 0.82700002 4284968217
-0.11893048 0.065372385 0.82700002 4284967941
-0.11735524 0.065372385 0.82700002 4284902943
-0.11578001 0.065372385 0.82700002 4284836152
-0.11448096 0.065530479 0.82900006 4284835641
-0.11290191 0.065530479 0.82900006 4284376377
-0.11132286 0.065530479 0.82900006 4283917628
-0.10974382 0.065530479 0.82900006 4284048702
-0.10816477 0.065530479 0.82900006 4284181812
-0.10684286 0.065688573 0.83100003 4283720233
-0.10526001 0.065688573 0.83100003 4283260461
-0.10367715 0.065688573 0.83100003 4283391280
-0.10209429 0.065688573 0.83100003 4283589423
-0.10051143 0.065688573 0.83100003 4283523118
-0.098928578 0.065688573 0.83100003 4283523379
-0.097345717 0.065688573 0.83100003 4283588663
-0.095762864 0.065688573 0.83100003 4283655732
-0.094180003 0.065688573 0.83100003 4283523889
-0.092597149 0.065688573 0.83100003 4283459888
-0.091014288 0.065688573 0.83100003 4283128622
-0.089431435 0.065688573 0.83100003 4282870571
-0.087848574 0.065688573 0.83100003 4282472231
-0.08626572 0.065688573 0.83100003 4282147875
-0.084682859 0.065688573 0.83100003 4282013215
-0.082900003 0.065530479 0.82900006 4281885465
-0.081517145 0.065688573 0.83100003 4282338066
-0.079934292 0.065688573 0.83100003 4282795277
-0.078162864 0.065530479 0.82900006 4282459143
-0.076583818 0.065530479 0.82900006 4282128650
-0.075004764 0.065530479 0.82900006 4282063885
-0.14692858 0.066785716 0.82500005 4284309034
-0.14535715 0.066785716 0.82500005 4283718441
-0.14378573 0.066785716 0.82500005 4284045353
-0.1422143 0.066785716 0.82500005 4284373804
-0.14030191 0.066623814 0.82300001 4284505903
-0.1387343 0.066623814 0.82300001 4284637478
-0.13716668 0.066623814 0.82300001 4284441117
-0.13559906 0.066623814 0.82300001 4284178470
-0.13403144 0.066623814 0.82300001 4283983664
-0.13246381 0.066623814 0.82300001 4283721011
-0.13121429 0.066785716 0.82500005 4283916342
-0.12964286 0.066785716 0.82500005 4284049206
-0.12807144 0.066785716 0.82500005 4283786550
-0.12650001 0.066785716 0.82500005 4283459378
-0.12492858 0.066785716 0.82500005 4283852079
-0.12335715 0.066785716 0.82500005 4284248355
-0.12208096 0.066947624 0.82700002 4284443671
-0.12021429 0.066785716 0.82500005 4284573981
-0.11864287 0.066785716 0.82500005 4284771107
-0.11735524 0.066947624 0.82700002 4284901421
-0.11578001 0.066947624 0.82700002 4284966711
-0.11420477 0.066947624 0.82700002 4285032252
-0.11262953 0.066947624 0.82700002 4284834881
-0.11105429 0.066947624 0.82700002 4284636476
-0.10974382 0.067109525 0.82900006 4284373047
-0.10816477 0.067109525 0.82900006 4284111400
-0.10658572 0.067109525 0.82900006 4283258905
-0.10500667 0.067109525 0.82900006 4282403609
-0.10342763 0.067109525 0.82900006 4282666265
-0.10184858 0.067109525 0.82900006 4282928408
-0.10026953 0.067109525 0.82900006 4282864920
-0.09869048 0.067109525 0.82900006 4282798106
-0.097111434 0.067109525 0.82900006 4282667036
-0.095532387 0.067109525 0.82900006 4282536731
-0.093953341 0.067109525 0.82900006 4282273561
-0.092374295 0.067109525 0.82900006 4282009368
-0.090795241 0.067109525 0.82900006 4281412632
-0.089431435 0.067271434 0.83100003 4280825111
-0.087848574 0.067271434 0.83100003 4280229399
-0.08626572 0.067271434 0.83100003 4279581481
-0.084682859 0.067271434 0.83100003 4279578170
-0.082900003 0.067109525 0.82900006 4279583010
-0.081320956 0.067109525 0.82900006 4281151242
-0.07974191 0.067109525 0.82900006 4282723847
-0.078162864 0.067109525 0.82900006 4282456580
-0.076583818 0.067109525 0.82900006 4282129158
-0.074823812 0.066947624 0.82700002 4282195464
-0.073248573 0.066947624 0.82700002 4282194949
-0.14692858 0.068357147 0.82500005 4284178227
-0.14500476 0.068191431 0.82300001 4283716903
-0.14343715 0.068191431 0.82300001 4283914779
-0.14152478 0.068025716 0.82100004 4284177705
-0.13996096 0.068025716 0.82100004 4284308279
-0.13839716 0.068025716 0.82100004 4284440120
-0.13650002 0.067860007 0.81900007 4284438841
-0.13494001 0.067860007 0.81900007 4284436790
-0.13338001 0.067860007 0.81900007 4285029171
-0.13214192 0.068025716 0.82100004 4285620778
-0.1308962 0.068191431 0.82300001 4285818400
-0.12932858 0.068191431 0.82300001 4286016038
-0.12776096 0.068191431 0.82300001 4286082860
-0.12619334 0.068191431 0.82300001 4286081591
-0.12462572 0.068191431 0.82300001 4286479937
-0.1230581 0.068191431 0.82300001 4286875681
-0.12149049 0.068191431 0.82300001 4285821953
-0.11992286 0.068191431 0.82300001 4284768033
-0.11835524 0.068191431 0.82300001 4284897857
-0.11707143 0.068357147 0.82500005 4285030460
-0.11550001 0.068357147 0.82500005 4285031990
-0.11392858 0.068357147 0.82500005 4285033279
-0.11262953 0.068522863 0.82700002 4284767304
-0.11105429 0.068522863 0.82700002 4284502588
-0.10947905 0.068522863 0.82700002 4284696367
-0.10790382 0.068522863 0.82700002 4284959260
-0.10632858 0.068522863 0.82700002 4284433928
-0.10475334 0.068522863 0.82700002 4283967237
-0.1031781 0.068522863 0.82700002 4284694530
-0.10160287 0.068522863 0.82700002 4285410818
-0.10002763 0.068522863 0.82700002 4285876737
-0.098452389 0.068522863 0.82700002 4286331649
-0.09687715 0.068522863 0.82700002 4286668033
-0.095532387 0.068688579 0.82900006 4286990337
-0.093726672 0.068522863 0.82700002 4287063041
-0.092374295 0.068688579 0.82900006 4287117313
-0.090795241 0.068688579 0.82900006 4287190273
-0.089216195 0.068688579 0.82900006 4287176196
-0.087637149 0.068688579 0.82900006 4287191047
-0.086058103 0.068688579 0.82900006 4287249198
-0.084479056 0.068688579 0.82900006 4287260757
-0.082900003 0.068688579 0.82900006 4287251243
-0.081320956 0.068688579 0.82900006 4284632065
-0.079549529 0.068522863 0.82700002 4282001921
-0.07797429 0.068522863 0.82700002 4282195713
-0.076399051 0.068522863 0.82700002 4282457090
-0.074642859 0.068357147 0.82500005 4282326531
-0.07289429 0.068191431 0.82300001 4282194690
-0.1446524 0.069589525 0.82100004 4283653671
-0.14308858 0.069589525 0.82100004 4283850521
-0.14118001 0.069420002 0.81900007 4283981353
-0.13962001 0.069420002 0.81900007 4284108858
-0.13806 0.069420002 0.81900007 4284179006
-0.13650002 0.069420002 0.81900007 4284437058
-0.13494001 0.069420002 0.81900007 4284702787
-0.13338001 0.069420002 0.81900007 4286140740
-0.13182001 0.069420002 0.81900007 4287525444
-0.1305781 0.069589525 0.82100004 4287786309
-0.1290143 0.069589525 0.82100004 4287987540
-0.12745048 0.069589525 0.82100004 4288381283
-0.12588668 0.069589525 0.82100004 4288711786
-0.12432287 0.069589525 0.82100004 4289110129
-0.12275906 0.069589525 0.82100004 4289500498
-0.12149049 0.069759049 0.82300001 4287265587
-0.11992286 0.069759049 0.82300001 4284966186
-0.11835524 0.069759049 0.82300001 4285021473
-0.11678763 0.069759049 0.82300001 4285097766
-0.11522001 0.069759049 0.82300001 4285097003
-0.11392858 0.069928579 0.82500005 4285033266
-0.11235715 0.069928579 0.82500005 4284698424
-0.11078572 0.069928579 0.82500005 4284308302
-0.10947905 0.070098102 0.82700002 4285015909
-0.10790382 0.070098102 0.82700002 4285752926
-0.10632858 0.070098102 0.82700002 4285681751
-0.10475334 0.070098102 0.82700002 4285557342
-0.1031781 0.070098102 0.82700002 4286733925
-0.10160287 0.070098102 0.82700002 4287855726
-0.10002763 0.070098102 0.82700002 4288834423
-0.098214291 0.069928579 0.82500005 4289827436
-0.09687715 0.070098102 0.82700002 4290683490
-0.095301911 0.070098102 0.82700002 4291471964
-0.093726672 0.070098102 0.82700002 4291871062
-0.092151433 0.070098102 0.82700002 4292260706
-0.090576194 0.070098102 0.82700002 4292924269
-0.089216195 0.070267625 0.82900006 4293572214
-0.087637149 0.070267625 0.82900006 4294240895
-0.086058103 0.070267625 0.82900006 4294886804
-0.084479056 0.070267625 0.82900006 4294898858
-0.082700007 0.070098102 0.82700002 4294881398
-0.081124768 0.070098102 0.82700002 4288123970
-0.079549529 0.070098102 0.82700002 4281284385
-0.07797429 0.070098102 0.82700002 4281997825
-0.076399051 0.070098102 0.82700002 4282720770
-0.074642859 0.069928579 0.82500005 4282458371
-0.07289429 0.069759049 0.82300001 4282130434
-0.071153335 0.069589525 0.82100004 4282195969
-0.1446524 0.071153335 0.82100004 4287063847
-0.14274001 0.070980005 0.81900007 4286934806
-0.14118001 0.070980005 0.81900007 4286868010
-0.13962001 0.070980005 0.81900007 4287394365
-0.13806 0.070980005 0.81900007 4287924036
-0.13616668 0.070806675 0.81700003 4288251978
-0.13461049 0.070806675 0.81700003 4288580687
-0.1330543 0.070806675 0.81700003 4289106004
-0.1314981 0.070806675 0.81700003 4289636447
-0.13026001 0.070980005 0.81900007 4289698922
-0.1287 0.070980005 0.81900007 4289701250
-0.12745048 0.071153335 0.82100004 4289962650
-0.12588668 0.071153335 0.82100004 4290160285
-0.12432287 0.071153335 0.82100004 4290423968
-0.12275906 0.071153335 0.82100004 4290752643
-0.12119525 0.071153335 0.82100004 4289042533
-0.11963144 0.071153335 0.82100004 4287396659
-0.11806763 0.071153335 0.82100004 4287462401
-0.11650382 0.071153335 0.82100004 4287535889
-0.11494001 0.071153335 0.82100004 4287598112
-0.11365239 0.071326673 0.82300001 4287597604
-0.11208477 0.071326673 0.82300001 4287861544
-0.11078572 0.071500003 0.82500005 4288062561
-0.10921429 0.071500003 0.82500005 4288454042
-0.10764287 0.071500003 0.82500005 4288861856
-0.10607143 0.071500003 0.82500005 4288656037
-0.1045 0.071500003 0.82500005 4288467382
-0.10292858 0.071500003 0.82500005 4289446343
-0.10135715 0.071500003 0.82500005 4290378458
-0.099785723 0.071500003 0.82500005 4290827501
-0.098214291 0.071500003 0.82500005 4291231448
-0.096642867 0.071500003 0.82500005 4291419842
-0.095071435 0.071500003 0.82500005 4291624631
-0.093500003 0.071500003 0.82500005 4291289003
-0.091928579 0.071500003 0.82500005 4290903746
-0.090576194 0.071673341 0.82700002 4290699225
-0.089000955 0.071673341 0.82700002 4290575848
-0.087425724 0.071673341 0.82700002 4290567414
-0.085850485 0.071673341 0.82700002 4290640890
-0.084275246 0.071673341 0.82700002 4290565630
-0.082700007 0.071673341 0.82700002 4290507712
-0.081124768 0.071673341 0.82700002 4285886850
-0.079549529 0.071673341 0.82700002 4281271106
-0.07797429 0.071673341 0.82700002 4281999361
-0.076214291 0.071500003 0.82500005 4282658562
-0.074642859 0.071500003 0.82500005 4282460163
-0.07289429 0.071326673 0.82300001 4282262274
-0.071153335 0.071153335 0.82100004 4282458625
-0.069589525 0.071153335 0.82100004 4282590210
-0.1446524 0.072717145 0.82100004 4290480472
-0.14274001 0.072540008 0.81900007 4290088017
-0.14118001 0.072540008 0.81900007 4289691995
-0.13962001 0.072540008 0.81900007 4290676581
-0.13806 0.072540008 0.81900007 4291663480
-0.13616668 0.072362863 0.81700003 4292065932
-0.13461049 0.072362863 0.81700003 4292392340
-0.1330543 0.072362863 0.81700003 4292066203
-0.1314981 0.072362863 0.81700003 4291736724
-0.13026001 0.072540008 0.81900007 4291605645
-0.1287 0.072540008 0.81900007 4291408532
-0.12714002 0.072540008 0.81900007 4291542171
-0.12558001 0.072540008 0.81900007 4291606435
-0.12402001 0.072540008 0.81900007 4291804076
-0.12246001 0.072540008 0.81900007 4291934362
-0.12119525 0.072717145 0.82100004 4290885769
-0.11963144 0.072717145 0.82100004 4289830244
-0.11806763 0.072717145 0.82100004 4289896000
-0.11650382 0.072717145 0.82100004 4289961807
-0.11494001 0.072717145 0.82100004 4290095967
-0.1133762 0.072717145 0.82100004 4290160998
-0.11208477 0.07289429 0.82300001 4291021934
-0.11051715 0.07289429 0.82300001 4291803022
-0.10894953 0.07289429 0.82300001 4291875758
-0.10764287 0.073071435 0.82500005 4291937966
-0.10581429 0.07289429 0.82300001 4291678383
-0.1045 0.073071435 0.82500005 4291345845
-0.10292858 0.073071435 0.82500005 4292139964
-0.10135715 0.073071435 0.82500005 4292856518
-0.099785723 0.073071435 0.82500005 4292734672
-0.0979762 0.07289429 0.82300001 4292593347
-0.096408576 0.07289429 0.82300001 4292205495
-0.094840959 0.07289429 0.82300001 4291733164
-0.093500003 0.073071435 0.82500005 4290625185
-0.091928579 0.073071435 0.82500005 4289503392
-0.090357147 0.073071435 0.82500005 4288523679
-0.088785723 0.073071435 0.82500005 4287467434
-0.087214291 0.073071435 0.82500005 4286943158
-0.085850485 0.073248573 0.82700002 4286349223
-0.084275246 0.073248573 0.82700002 4286214296
-0.082700007 0.073248573 0.82700002 4286081141
-0.080928579 0.073071435 0.82500005 4283710033
-0.079357147 0.073071435 0.82500005 4281280817
-0.077785723 0.073071435 0.82500005 4281938704
-0.076214291 0.073071435 0.82500005 4282592781
-0.074642859 0.073071435 0.82500005 4282526473
-0.07289429 0.07289429 0.82300001 4282393606
-0.071153335 0.072717145 0.82100004 4282655235
-0.069589525 0.072717145 0.82100004 4282916868
-0.14274001 0.074100003 0.81900007 4289820044
-0.14083524 0.07391905 0.81700003 4289300108
-0.13962001 0.074100003 0.81900007 4289822604
-0.13772286 0.07391905 0.81700003 4290351533
-0.13616668 0.07391905 0.81700003 4290750158
-0.13461049 0.07391905 0.81700003 4291089368
-0.13272858 0.073738098 0.81500006 4290819810
-0.1314981 0.07391905 0.81700003 4290493129
-0.12994191 0.07391905 0.81700003 4290357424
-0.12838572 0.07391905 0.81700003 4290163366
-0.12714002 0.074100003 0.81900007 4290095772
-0.12558001 0.074100003 0.81900007 4289969578
-0.12402001 0.074100003 0.81900007 4290031543
-0.12246001 0.074100003 0.81900007 4290034866
-0.12090001 0.074100003 0.81900007 4289440429
-0.11963144 0.074280955 0.82100004 4288913814
-0.11806763 0.074280955 0.82100004 4287991166
-0.11650382 0.074280955 0.82100004 4287076750
-0.11494001 0.074280955 0.82100004 4287336093
-0.1133762 0.074280955 0.82100004 4287602600
-0.11208477 0.074461907 0.82300001 4287797427
-0.11051715 0.074461907 0.82300001 4287994042
-0.10894953 0.074461907 0.82300001 4287929025
-0.10738191 0.074461907 0.82300001 4287864765
-0.10581429 0.074461907 0.82300001 4287467448
-0.10424668 0.074461907 0.82300001 4287133620
-0.10267905 0.074461907 0.82300001 4287333040
-0.10111143 0.074461907 0.82300001 4287588017
-0.099543817 0.074461907 0.82300001 4287526834
-0.097738102 0.074280955 0.82100004 4287451823
-0.096174292 0.074280955 0.82100004 4286929068
-0.094840959 0.074461907 0.82300001 4286382497
-0.093273342 0.074461907 0.82300001 4286465174
-0.091705717 0.074461907 0.82300001 4286453374
-0.0901381 0.074461907 0.82300001 4286137701
-0.088570483 0.074461907 0.82300001 4285727085
-0.087214291 0.074642859 0.82500005 4285413237
-0.085642859 0.074642859 0.82500005 4285137236
-0.084071435 0.074642859 0.82500005 4284688946
-0.082500003 0.074642859 0.82500005 4284285225
-0.080928579 0.074642859 0.82500005 4283116064
-0.079357147 0.074642859 0.82500005 4282004256
-0.077785723 0.074642859 0.82500005 4282134815
-0.076029532 0.074461907 0.82300001 4282264343
-0.074461907 0.074461907 0.82300001 4282262799
-0.072717145 0.074280955 0.82100004 4282326538
-0.071153335 0.074280955 0.82100004 4282457092
-0.069420002 0.074100003 0.81900007 4282586887
-0.068025716 0.074280955 0.82100004 4282391818
-0.14239144 0.075475246 0.81700003 4289611878
-0.14083524 0.075475246 0.81700003 4288897135
-0.13927905 0.075475246 0.81700003 4288962168
-0.13772286 0.075475246 0.81700003 4289029774
-0.13583334 0.075290479 0.81500006 4289427621
-0.13428096 0.075290479 0.81500006 4289757098
-0.13272858 0.075290479 0.81500006 4289499054
-0.1311762 0.075290479 0.81500006 4289235102
-0.12994191 0.075475246 0.81700003 4289101966
-0.12838572 0.075475246 0.81700003 4288906889
-0.12682953 0.075475246 0.81700003 4288642435
-0.12558001 0.075660005 0.81900007 4288317835
-0.12402001 0.075660005 0.81900007 4288252051
-0.12246001 0.075660005 0.81900007 4288124306
-0.12090001 0.075660005 0.81900007 4288057746
-0.11934001 0.075660005 0.81900007 4287922798
-0.11806763 0.075844765 0.82100004 4286077771
-0.11650382 0.075844765 0.82100004 4284179800
-0.11494001 0.075844765 0.82100004 4284568421
-0.1133762 0.075844765 0.82100004 4284967535
-0.11181239 0.075844765 0.82100004 4284570490
-0.11024858 0.075844765 0.82100004 4284115833
-0.10868477 0.075844765 0.82100004 4283980920
-0.10738191 0.076029532 0.82300001 4283787894
-0.10555715 0.075844765 0.82100004 4283323508
-0.10399334 0.075844765 0.82100004 4282867051
-0.10242953 0.075844765 0.82100004 4282601315
-0.10086572 0.075844765 0.82100004 4282273898
-0.099301912 0.075844765 0.82100004 4282332274
-0.097738102 0.075844765 0.82100004 4282336119
-0.096174292 0.075844765 0.82100004 4281741948
-0.094610482 0.075844765 0.82100004 4281086585
-0.093046673 0.075844765 0.82100004 4282268791
-0.091705717 0.076029532 0.82300001 4283450729
-0.089919053 0.075844765 0.82100004 4283780956
-0.088355243 0.075844765 0.82100004 4284041052
-0.087002866 0.076029532 0.82300001 4283976796
-0.085435241 0.076029532 0.82300001 4283907908
-0.083867624 0.076029532 0.82300001 4283184940
-0.082300007 0.076029532 0.82300001 4282463015
-0.080732383 0.076029532 0.82300001 4282596130
-0.079164766 0.076029532 0.82300001 4282660639
-0.077597149 0.076029532 0.82300001 4282266397
-0.076029532 0.076029532 0.82300001 4281870870
-0.074461907 0.076029532 0.82300001 4282064911
-0.07289429 0.076029532 0.82300001 4282195465
-0.071153335 0.075844765 0.82100004 4282193923
-0.069420002 0.075660005 0.81900007 4282194437
-0.067860007 0.075660005 0.81900007 4282128903
-0.14239144 0.077031434 0.81700003 4288563519
-0.14083524 0.077031434 0.81700003 4288107857
-0.13927905 0.077031434 0.81700003 4288171363
-0.13772286 0.077031434 0.81700003 4288295536
-0.13583334 0.076842859 0.81500006 4288429948
-0.13428096 0.076842859 0.81500006 4288553595
-0.13272858 0.076842859 0.81500006 4288436090
-0.1311762 0.076842859 0.81500006 4288304755
-0.12994191 0.077031434 0.81700003 4288309868
-0.12838572 0.077031434 0.81700003 4288309355
-0.12682953 0.077031434 0.81700003 4288310634
-0.12527335 0.077031434 0.81700003 4288307309
-0.12371715 0.077031434 0.81700003 4288313455
-0.12246001 0.077220008 0.81900007 4288315251
-0.12090001 0.077220008 0.81900007 4288185974
-0.11934001 0.077220008 0.81900007 4288051527
-0.11778001 0.077220008 0.81900007 4285815064
-0.11622 0.077220008 0.81900007 4283649570
-0.11466001 0.077220008 0.81900007 4284241196
-0.1133762 0.077408575 0.82100004 4284832054
-0.11181239 0.077408575 0.82100004 4284570944
-0.11024858 0.077408575 0.82100004 4284374328
-0.10868477 0.077408575 0.82100004 4284177455
-0.10712096 0.077408575 0.82100004 4283980335
-0.10555715 0.077408575 0.82100004 4283718447
-0.10399334 0.077408575 0.82100004 4283521826
-0.10242953 0.077408575 0.82100004 4283389973
-0.10086572 0.077408575 0.82100004 4283324452
-0.099301912 0.077408575 0.82100004 4283453490
-0.097738102 0.077408575 0.82100004 4283585343
-0.096174292 0.077408575 0.82100004 4283453516
-0.094610482 0.077408575 0.82100004 4283325010
-0.093046673 0.077408575 0.82100004 4284048471
-0.091482863 0.077408575 0.82100004 4284772693
-0.089919053 0.077408575 0.82100004 4284904531
-0.088355243 0.077408575 0.82100004 4285103947
-0.086791433 0.077408575 0.82100004 4284902722
