# .PCD v0.7 - Point Cloud Data file format
VERSION 0.7
FIELDS x y z rgba
SIZE 4 4 4 4
TYPE F F F U
COUNT 1 1 1 1
WIDTH 1024
HEIGHT 1
VIEWPOINT 0 0 0 1 0 0 0
POINTS 1024
DATA ascii
0.018547621 0.073448576 0.77900004 4283712514
0.02003143 0.073448576 0.77900004 4281732354
0.021542858 0.073542863 0.78000003 4281734145
0.023028573 0.073542863 0.78000003 4281803269
0.024514288 0.073542863 0.78000003 4281604872
0.026000002 0.073542863 0.78000003 4281406762
0.027485715 0.073542863 0.78000003 4281603403
0.02897143 0.073542863 0.78000003 4281799993
-0.045023814 0.074547626 0.77500004 4290555307
-0.043435242 0.074355245 0.77300006 4289702822
-0.041962858 0.074355245 0.77300006 4288784287
-0.040490478 0.074355245 0.77300006 4288651161
-0.039018098 0.074355245 0.77300006 4288519322
-0.037497144 0.07425905 0.77200001 4288321948
-0.036026668 0.07425905 0.77200001 4288123795
-0.034600955 0.074355245 0.77300006 4287728521
-0.033128574 0.074355245 0.77300006 4287271304
-0.031656191 0.074355245 0.77300006 4286675335
-0.030183811 0.074355245 0.77300006 4286023302
-0.028711431 0.074355245 0.77300006 4286346118
-0.027309526 0.074547626 0.77500004 4286615948
-0.025833335 0.074547626 0.77500004 4286943635
-0.024357144 0.074547626 0.77500004 4287208341
-0.022880955 0.074547626 0.77500004 4287731096
-0.021404764 0.074547626 0.77500004 4288258196
-0.019928573 0.074547626 0.77500004 4288058000
-0.018452382 0.074547626 0.77500004 4287798156
-0.016976191 0.074547626 0.77500004 4288190857
-0.015500001 0.074547626 0.77500004 4288520325
-0.014023811 0.074547626 0.77500004 4288387202
-0.01254762 0.074547626 0.77500004 4288258698
-0.01107143 0.074547626 0.77500004 4288126610
-0.0095952386 0.074547626 0.77500004 4287994760
-0.0081400005 0.074740008 0.77700001 4288256383
-0.0066600004 0.074740008 0.77700001 4288520057
-0.0051933336 0.074932389 0.77900004 4288651123
-0.0037095239 0.074932389 0.77900004 4288782198
-0.0022257145 0.074932389 0.77900004 4288649848
-0.00074000005 0.074740008 0.77700001 4288517466
0.00074000005 0.074740008 0.77700001 4287665724
0.0022200001 0.074740008 0.77700001 4286745422
0.0037095239 0.074932389 0.77900004 4286415456
0.0051933336 0.074932389 0.77900004 4286085187
0.0066771433 0.074932389 0.77900004 4285624101
0.0081609525 0.074932389 0.77900004 4285099045
0.0096447626 0.074932389 0.77900004 4284837925
0.011128572 0.074932389 0.77900004 4284509980
0.012612382 0.074932389 0.77900004 4284970770
0.014096191 0.074932389 0.77900004 4285429285
0.015580001 0.074932389 0.77900004 4285887799
0.017020002 0.074740008 0.77700001 4286347293
0.018500002 0.074740008 0.77700001 4284376578
0.019980002 0.074740008 0.77700001 4282393602
0.021460002 0.074740008 0.77700001 4282125569
0.022999048 0.074932389 0.77900004 4281866499
0.024482859 0.074932389 0.77900004 4281604613
0.025966669 0.074932389 0.77900004 4281276441
0.027450478 0.074932389 0.77900004 4281538093
0.028934287 0.074932389 0.77900004 4281799461
0.030418098 0.074932389 0.77900004 4281928734
0.031901907 0.074932389 0.77900004 4281995294
-0.04337905 0.075729527 0.77200001 4287529860
-0.041908573 0.075729527 0.77200001 4287004536
-0.040490478 0.075827621 0.77300006 4286807404
-0.039018098 0.075827621 0.77300006 4286671981
-0.037497144 0.075729527 0.77200001 4286608237
-0.036026668 0.075729527 0.77200001 4286535519
-0.034556191 0.075729527 0.77200001 4286477393
-0.033128574 0.075827621 0.77300006 4286476626
-0.031656191 0.075827621 0.77300006 4286346579
-0.030183811 0.075827621 0.77300006 4286213204
-0.028674288 0.075729527 0.77200001 4286412117
-0.027239049 0.075827621 0.77300006 4286674269
-0.025766669 0.075827621 0.77300006 4286940517
-0.024294287 0.075827621 0.77300006 4287202929
-0.022880955 0.076023817 0.77500004 4287467644
-0.021349525 0.075827621 0.77300006 4287797623
-0.019928573 0.076023817 0.77500004 4287730290
-0.018404763 0.075827621 0.77300006 4287730541
-0.016976191 0.076023817 0.77500004 4288058728
-0.015500001 0.076023817 0.77500004 4288322151
-0.01398762 0.075827621 0.77300006 4288322149
-0.012515238 0.075827621 0.77300006 4288256610
-0.01107143 0.076023817 0.77500004 4288191071
-0.0095952386 0.076023817 0.77500004 4288126311
-0.0081400005 0.076220006 0.77700001 4288388206
-0.0066600004 0.076220006 0.77700001 4288585842
-0.0051800003 0.076220006 0.77700001 4288716149
-0.0037000002 0.076220006 0.77700001 4288782194
-0.0022200001 0.076220006 0.77700001 4288519279
-0.00074000005 0.076220006 0.77700001 4288322149
0.00074000005 0.076220006 0.77700001 4287599194
0.0022200001 0.076220006 0.77700001 4286876507
0.0037000002 0.076220006 0.77700001 4286547035
0.0051800003 0.076220006 0.77700001 4286218577
0.0066600004 0.076220006 0.77700001 4285823303
0.0081400005 0.076220006 0.77700001 4285493827
0.0096200006 0.076220006 0.77700001 4285297727
0.011100001 0.076220006 0.77700001 4285100838
0.012580001 0.076220006 0.77700001 4285496077
0.014060001 0.076220006 0.77700001 4285824802
0.015540001 0.076220006 0.77700001 4286284086
0.017020002 0.076220006 0.77700001 4286810652
0.018452382 0.076023817 0.77500004 4285029890
0.019928573 0.076023817 0.77500004 4283240194
0.021460002 0.076220006 0.77700001 4282387969
0.022940002 0.076220006 0.77700001 4281604354
0.024420002 0.076220006 0.77700001 4281670658
0.025833335 0.076023817 0.77500004 4281736200
0.027309526 0.076023817 0.77500004 4281866510
0.028860003 0.076220006 0.77700001 4281996562
-0.04337905 0.077200003 0.77200001 4285359459
-0.041962858 0.077300005 0.77300006 4285165668
-0.040490478 0.077300005 0.77300006 4285033061
-0.039018098 0.077300005 0.77300006 4284837984
-0.037497144 0.077200003 0.77200001 4284903771
-0.036026668 0.077200003 0.77200001 4284903511
-0.034556191 0.077200003 0.77200001 4285300052
-0.033085715 0.077200003 0.77200001 4285692756
-0.031656191 0.077300005 0.77300006 4286021460
-0.030144764 0.077200003 0.77200001 4286347860
-0.028674288 0.077200003 0.77200001 4286546260
-0.027239049 0.077300005 0.77300006 4286742360
-0.025766669 0.077300005 0.77300006 4287006300
-0.024294287 0.077300005 0.77300006 4287203428
-0.022821907 0.077300005 0.77300006 4287269996
-0.021349525 0.077300005 0.77300006 4287270249
-0.019877145 0.077300005 0.77300006 4287466086
-0.018404763 0.077300005 0.77300006 4287663466
-0.016932381 0.077300005 0.77300006 4287925358
-0.015460001 0.077300005 0.77300006 4288124270
-0.01398762 0.077300005 0.77300006 4288191342
-0.012515238 0.077300005 0.77300006 4288256105
-0.011042858 0.077300005 0.77300006 4288255075
-0.0095704766 0.077300005 0.77300006 4288256102
-0.0081190486 0.077500008 0.77500004 4288453224
-0.0066428576 0.077500008 0.77500004 4288649837
-0.005166667 0.077500008 0.77500004 4288714610
-0.0036809526 0.077300005 0.77300006 4288781167
-0.0022085716 0.077300005 0.77300006 4288453995
-0.00073809526 0.077500008 0.77500004 4288058978
0.00073809526 0.077500008 0.77500004 4287532378
0.0022142858 0.077500008 0.77500004 4287006807
0.0036904765 0.077500008 0.77500004 4286677588
0.005166667 0.077500008 0.77500004 4286284103
0.0066428576 0.077500008 0.77500004 4286087483
0.0081190486 0.077500008 0.77500004 4285889086
0.0095952386 0.077500008 0.77500004 4285823553
0.01107143 0.077500008 0.77500004 4285693244
0.01254762 0.077500008 0.77500004 4285956920
0.014023811 0.077500008 0.77500004 4286218554
0.015500001 0.077500008 0.77500004 4286743612
0.016976191 0.077500008 0.77500004 4287202345
0.018452382 0.077500008 0.77500004 4285626391
0.019877145 0.077300005 0.77300006 4284038156
0.021404764 0.077500008 0.77500004 4282712321
0.022880955 0.077500008 0.77500004 4281340931
0.024357144 0.077500008 0.77500004 4281737221
0.025766669 0.077300005 0.77300006 4282129928
0.027239049 0.077300005 0.77300006 4282129931
0.028785717 0.077500008 0.77500004 4282129165
0.030261906 0.077500008 0.77500004 4282261007
-0.04337905 0.078670479 0.77200001 4285427521
-0.041908573 0.078670479 0.77200001 4285100111
-0.040490478 0.078772388 0.77300006 4285166173
-0.039018098 0.078772388 0.77300006 4285167443
-0.037497144 0.078670479 0.77200001 4285298761
-0.036026668 0.078670479 0.77200001 4285365328
-0.034466669 0.078466669 0.77000004 4285627734
-0.033085715 0.078670479 0.77200001 4285890134
-0.031615239 0.078670479 0.77200001 4286086485
-0.030144764 0.078670479 0.77200001 4286283092
-0.028600002 0.078466669 0.77000004 4286414674
-0.027203811 0.078670479 0.77200001 4286546259
-0.025733335 0.078670479 0.77200001 4286743123
-0.024294287 0.078772388 0.77300006 4286941272
-0.022821907 0.078772388 0.77300006 4287006556
-0.021349525 0.078772388 0.77300006 4287071323
-0.019877145 0.078772388 0.77300006 4287268698
-0.018404763 0.078772388 0.77300006 4287465831
-0.016932381 0.078772388 0.77300006 4287663220
-0.015460001 0.078772388 0.77300006 4287861110
-0.013969525 0.078670479 0.77200001 4287927415
-0.012499048 0.078670479 0.77200001 4288059247
-0.011028572 0.078670479 0.77200001 4287993447
-0.0095580956 0.078670479 0.77200001 4287927909
-0.0080876192 0.078670479 0.77200001 4287861858
-0.0066171433 0.078670479 0.77200001 4287862377
-0.0051466669 0.078670479 0.77200001 4287861871
-0.0036809526 0.078772388 0.77300006 4287928427
-0.0022057144 0.078670479 0.77200001 4287796583
-0.00073523814 0.078670479 0.77200001 4287730528
0.00073523814 0.078670479 0.77200001 4287269721
0.0022057144 0.078670479 0.77200001 4286809171
0.0036809526 0.078772388 0.77300006 4286480972
0.0051466669 0.078670479 0.77200001 4286217790
0.0066171433 0.078670479 0.77200001 4286086703
0.0080980957 0.078772388 0.77300006 4285889593
0.0095704766 0.078772388 0.77300006 4285890114
0.011042858 0.078772388 0.77300006 4285891923
0.012499048 0.078670479 0.77200001 4286022243
0.013969525 0.078670479 0.77200001 4286217810
0.015460001 0.078772388 0.77300006 4286480961
0.016932381 0.078772388 0.77300006 4286810678
0.018404763 0.078772388 0.77300006 4285954859
0.019851429 0.078670479 0.77200001 4285097750
0.021349525 0.078772388 0.77300006 4283248385
0.022880955 0.078976199 0.77500004 4281406724
0.024294287 0.078772388 0.77300006 4281736199
0.025766669 0.078772388 0.77300006 4282064647
0.027239049 0.078772388 0.77300006 4282064135
0.028711431 0.078772388 0.77300006 4281998088
0.030183811 0.078772388 0.77300006 4282063880
0.031656191 0.078772388 0.77300006 4282129422
-0.041908573 0.080140956 0.77200001 4285035340
-0.040490478 0.080244765 0.77300006 4285298768
-0.038967621 0.080140956 0.77200001 4285495373
-0.037497144 0.080140956 0.77200001 4285692746
-0.035933334 0.079933338 0.77000004 4285823824
-0.034466669 0.079933338 0.77000004 4285954901
-0.033000004 0.079933338 0.77000004 4286085968
-0.031533334 0.079933338 0.77000004 4286151243
-0.030066669 0.079933338 0.77000004 4286217032
-0.028525716 0.07972572 0.76800001 4286283077
-0.027062859 0.07972572 0.76800001 4286348365
-0.025600001 0.07972572 0.76800001 4286544469
-0.024137145 0.07972572 0.76800001 4286677333
-0.022733334 0.079933338 0.77000004 4286808917
-0.021266667 0.079933338 0.77000004 4286874712
-0.019800002 0.079933338 0.77000004 4287071323
-0.018333334 0.079933338 0.77000004 4287203170
-0.016866667 0.079933338 0.77000004 4287400554
-0.015400001 0.079933338 0.77000004 4287532394
-0.013897143 0.07972572 0.76800001 4287729258
-0.012466667 0.079933338 0.77000004 4287861601
-0.011000001 0.079933338 0.77000004 4287731033
-0.0095333336 0.079933338 0.77000004 4287533148
-0.0080876192 0.080140956 0.77200001 4287334751
-0.0066171433 0.080140956 0.77200001 4287073879
-0.0051466669 0.080140956 0.77200001 4287073103
-0.0036761907 0.080140956 0.77200001 4287008077
-0.0022057144 0.080140956 0.77200001 4287203915
-0.00073523814 0.080140956 0.77200001 4287335759
0.00073333341 0.079933338 0.77000004 4286941523
0.0022057144 0.080140956 0.77200001 4286547023
0.0036761907 0.080140956 0.77200001 4286350156
0.0051333336 0.079933338 0.77000004 4286152515
0.0066000004 0.079933338 0.77000004 4286020922
0.0080876192 0.080140956 0.77200001 4285889586
0.0095580956 0.080140956 0.77200001 4285955369
0.011028572 0.080140956 0.77200001 4286021698
0.012499048 0.080140956 0.77200001 4286088028
0.013969525 0.080140956 0.77200001 4286152526
0.015440001 0.080140956 0.77200001 4286283073
0.016932381 0.080244765 0.77300006 4286349885
0.018404763 0.080244765 0.77300006 4286284346
0.019851429 0.080140956 0.77200001 4286147358
0.021321906 0.080140956 0.77200001 4283842050
0.022821907 0.080244765 0.77300006 4281474827
0.024294287 0.080244765 0.77300006 4281735700
0.025733335 0.080140956 0.77200001 4281998094
0.027203811 0.080140956 0.77200001 4281933065
0.028711431 0.080244765 0.77300006 4281867017
0.030183811 0.080244765 0.77300006 4281867017
0.031656191 0.080244765 0.77300006 4281867023
-0.038513336 0.080660008 0.76300001 4285560391
-0.037302859 0.081188574 0.76800001 4285692235
-0.035700001 0.080871433 0.76500005 4285823056
-0.034153335 0.080660008 0.76300001 4285888852
-0.032785717 0.080871433 0.76500005 4285954123
-0.031328574 0.080871433 0.76500005 4286019649
-0.029949525 0.081082866 0.76700002 4286085437
-0.028488573 0.081082866 0.76700002 4285954104
-0.02702762 0.081082866 0.76700002 4285822791
-0.025600001 0.081188574 0.76800001 4286151254
-0.024137145 0.081188574 0.76800001 4286479698
-0.022674287 0.081188574 0.76800001 4286611790
-0.02121143 0.081188574 0.76800001 4286743381
-0.019748572 0.081188574 0.76800001 4286874716
-0.018285716 0.081188574 0.76800001 4287006046
-0.016822858 0.081188574 0.76800001 4287137375
-0.015360001 0.081188574 0.76800001 4287269214
-0.013879049 0.081082866 0.76700002 4287335260
-0.012434287 0.081188574 0.76800001 4287467859
-0.011000001 0.081400007 0.77000004 4287336266
-0.0095085725 0.081188574 0.76800001 4287204179
-0.0080666672 0.081400007 0.77000004 4287072347
-0.0066000004 0.081400007 0.77000004 4286942277
-0.0051333336 0.081400007 0.77000004 4286875438
-0.0036666668 0.081400007 0.77000004 4286744367
-0.0022000002 0.081400007 0.77000004 4286810159
-0.00073333341 0.081400007 0.77000004 4286877246
0.00073142862 0.081188574 0.76800001 4286612812
0.0021942859 0.081188574 0.76800001 4286284108
0.0036571431 0.081188574 0.76800001 4286153035
0.0051200003 0.081188574 0.76800001 4286021448
0.0065742861 0.081082866 0.76700002 4285955397
0.0080457143 0.081188574 0.76800001 4285889067
0.0095085725 0.081188574 0.76800001 4285889296
0.011000001 0.081400007 0.77000004 4285888818
0.012434287 0.081188574 0.76800001 4285824084
0.013897143 0.081188574 0.76800001 4285824074
0.015440001 0.081611432 0.77200001 4285955392
0.016910477 0.081611432 0.77200001 4286087237
0.018380953 0.081611432 0.77200001 4286087497
0.019851429 0.081611432 0.77200001 4286153510
0.021321906 0.081611432 0.77200001 4283909890
0.022792382 0.081611432 0.77200001 4281667089
0.024262859 0.081611432 0.77200001 4281733664
0.025733335 0.081611432 0.77200001 4281865493
0.027203811 0.081611432 0.77200001 4281800714
0.028674288 0.081611432 0.77200001 4281735690
0.030144764 0.081611432 0.77200001 4281669898
0.031615239 0.081611432 0.77200001 4281670160
-0.038412385 0.081898101 0.76100004 4285626446
-0.037060004 0.08211334 0.76300001 4285692760
-0.035606667 0.08211334 0.76300001 4285757782
-0.034153335 0.08211334 0.76300001 4285822804
-0.032700002 0.08211334 0.76300001 4285822795
-0.03124667 0.08211334 0.76300001 4285888067
-0.02987143 0.08232858 0.76500005 4285888311
-0.028414287 0.08232858 0.76500005 4285625387
-0.026957145 0.08232858 0.76500005 4285298494
-0.025500001 0.08232858 0.76500005 4285823058
-0.024105716 0.082543813 0.76700002 4286282825
-0.022644764 0.082543813 0.76700002 4286415168
-0.021183811 0.082543813 0.76700002 4286546757
-0.019671429 0.08232858 0.76500005 4286678090
-0.018261906 0.082543813 0.76700002 4286808912
-0.016757144 0.08232858 0.76500005 4286873943
-0.015340001 0.082543813 0.76700002 4286940247
-0.013879049 0.082543813 0.76700002 4287005784
-0.012385715 0.08232858 0.76500005 4287007309
-0.010957143 0.082543813 0.76700002 4286941507
-0.0094961915 0.082543813 0.76700002 4286809666
-0.0080457143 0.082651436 0.76800001 4286808130
-0.0065828576 0.082651436 0.76800001 4286808381
-0.0051200003 0.082651436 0.76800001 4286676536
-0.0036571431 0.082651436 0.76800001 4286480954
-0.0021914288 0.082543813 0.76700002 4286480444
-0.00073047623 0.082543813 0.76700002 4286415174
0.00073047623 0.082543813 0.76700002 4286217552
0.0021914288 0.082543813 0.76700002 4286020943
0.0036523812 0.082543813 0.76700002 4285955919
0.0051000002 0.08232858 0.76500005 4285824333
0.0065571433 0.08232858 0.76500005 4285824076
0.0080352388 0.082543813 0.76700002 4285824065
0.0094961915 0.082543813 0.76700002 4285823797
0.010971429 0.082651436 0.76800001 4285758528
0.012418096 0.082543813 0.76700002 4285626700
0.013879049 0.082543813 0.76700002 4285430596
0.015340001 0.082543813 0.76700002 4285627196
0.016866667 0.082866669 0.77000004 4285758515
0.018333334 0.082866669 0.77000004 4285955369
0.019800002 0.082866669 0.77000004 4286083361
0.021266667 0.082866669 0.77000004 4283976729
0.022792382 0.083081909 0.77200001 4281804830
0.024262859 0.083081909 0.77200001 4281797668
0.025666669 0.082866669 0.77000004 4281733909
0.027062859 0.082651436 0.76800001 4281668870
0.028600002 0.082866669 0.77000004 4281603591
0.030066669 0.082866669 0.77000004 4281537800
0.031410478 0.082543813 0.76700002 4281407758
-0.038412385 0.083347626 0.76100004 4285626965
-0.036962859 0.083347626 0.76100004 4285626725
-0.035606667 0.083566673 0.76300001 4285560924
-0.034063812 0.083347626 0.76100004 4285690707
-0.032614287 0.083347626 0.76100004 4285757260
-0.031164763 0.083347626 0.76100004 4285822788
-0.02971524 0.083347626 0.76100004 4285954353
-0.028340003 0.083566673 0.76300001 4285823005
-0.026886668 0.083566673 0.76300001 4285692213
-0.025433335 0.083566673 0.76300001 4286019917
-0.023980001 0.083566673 0.76300001 4286281792
-0.022526668 0.083566673 0.76300001 4286348850
-0.021073334 0.083566673 0.76300001 4286415413
-0.019620001 0.083566673 0.76300001 4286546487
-0.018166669 0.083566673 0.76300001 4286677315
-0.016713334 0.083566673 0.76300001 4286677583
-0.015260001 0.083566673 0.76300001 4286743377
-0.013842858 0.08378572 0.76500005 4286677587
-0.012353335 0.083566673 0.76300001 4286679367
-0.010928572 0.08378572 0.76500005 4286480955
-0.0094714295 0.08378572 0.76500005 4286349874
-0.0080352388 0.084004767 0.76700002 4286020905
-0.0065742861 0.084004767 0.76700002 4285692214
-0.0051133335 0.084004767 0.76700002 4285824322
-0.0036523812 0.084004767 0.76700002 4286022725
-0.0021857144 0.08378572 0.76500005 4286021448
-0.0007285715 0.08378572 0.76500005 4286019918
0.0007285715 0.08378572 0.76500005 4285954387
0.0021857144 0.08378572 0.76500005 4285888083
0.0036428573 0.08378572 0.76500005 4285823314
0.0051000002 0.08378572 0.76500005 4285757779
0.0065571433 0.08378572 0.76500005 4285758547
0.0080142859 0.08378572 0.76500005 4285759575
0.0094714295 0.08378572 0.76500005 4285890394
0.010957143 0.084004767 0.76700002 4285956431
0.012385715 0.08378572 0.76500005 4285824579
0.013842858 0.08378572 0.76500005 4285692734
0.015300001 0.08378572 0.76500005 4285758008
0.016800953 0.084004767 0.76700002 4285757473
0.018333334 0.084333338 0.77000004 4285888777
0.019748572 0.084114291 0.76800001 4286019612
0.021266667 0.084333338 0.77000004 4284110383
0.022733334 0.084333338 0.77000004 4282202155
0.024200002 0.084333338 0.77000004 4281997863
0.025566669 0.084004767 0.76700002 4281865236
0.02702762 0.084004767 0.76700002 4281734657
0.028525716 0.084114291 0.76800001 4281668611
0.029949525 0.084004767 0.76700002 4281669893
0.031410478 0.084004767 0.76700002 4281605901
-0.038412385 0.084797151 0.76100004 4285626439
-0.036962859 0.084797151 0.76100004 4285495117
-0.035513334 0.084797151 0.76100004 4285362512
-0.034063812 0.084797151 0.76100004 4285556307
-0.032614287 0.084797151 0.76100004 4285690444
-0.031123811 0.084685721 0.76000005 4285822788
-0.02971524 0.084797151 0.76100004 4285954615
-0.028265717 0.084797151 0.76100004 4286020394
-0.026816193 0.084797151 0.76100004 4286086201
-0.025366668 0.084797151 0.76100004 4286217289
-0.023980001 0.085020006 0.76300001 4286282816
-0.022467621 0.084797151 0.76100004 4286283319
-0.021073334 0.085020006 0.76300001 4286284076
-0.019620001 0.085020006 0.76300001 4286415138
-0.018119048 0.084797151 0.76100004 4286480438
-0.016669525 0.084797151 0.76100004 4286480970
-0.015260001 0.085020006 0.76300001 4286480205
-0.013806667 0.085020006 0.76300001 4286413137
-0.012353335 0.085020006 0.76300001 4286282567
-0.010900001 0.085020006 0.76300001 4286084414
-0.0094466675 0.085020006 0.76300001 4285823541
-0.0080142859 0.08524286 0.76500005 4285167916
-0.0065571433 0.08524286 0.76500005 4284512563
-0.0051000002 0.08524286 0.76500005 4285036603
-0.0036333336 0.085020006 0.76300001 4285561916
-0.0021800001 0.085020006 0.76300001 4285562429
-0.00072666671 0.085020006 0.76300001 4285561665
0.00072666671 0.085020006 0.76300001 4285691462
0.0021800001 0.085020006 0.76300001 4285756998
0.0036333336 0.085020006 0.76300001 4285756999
0.0050866669 0.085020006 0.76300001 4285691974
0.0065400004 0.085020006 0.76300001 4285692230
0.0080142859 0.08524286 0.76500005 4285693256
0.0094714295 0.08524286 0.76500005 4285956427
0.010928572 0.08524286 0.76500005 4286153286
0.012385715 0.08524286 0.76500005 4286088002
0.013842858 0.08524286 0.76500005 4285955397
0.015300001 0.08524286 0.76500005 4285889096
0.016757144 0.08524286 0.76500005 4285757748
0.018214287 0.08524286 0.76500005 4285822751
0.019671429 0.08524286 0.76500005 4285887021
0.021128573 0.08524286 0.76500005 4284243004
0.022674287 0.085577145 0.76800001 4282594865
0.024137145 0.085577145 0.76800001 4282256935
0.025600001 0.085577145 0.76800001 4281931288
0.026957145 0.08524286 0.76500005 4281867018
0.028488573 0.085465722 0.76700002 4281735693
0.02987143 0.08524286 0.76500005 4281801745
0.031328574 0.08524286 0.76500005 4281801494
0.032700002 0.085020006 0.76300001 4281735452
-0.036914289 0.086133339 0.76000005 4285428533
-0.035466667 0.086133339 0.76000005 4285361476
-0.034019049 0.086133339 0.76000005 4285492563
-0.032571431 0.086133339 0.76000005 4285625164
-0.031123811 0.086133339 0.76000005 4285691716
-0.029676192 0.086133339 0.76000005 4285823806
-0.028228574 0.086133339 0.76000005 4285955383
-0.026816193 0.086246669 0.76100004 4286086974
-0.025366668 0.086246669 0.76100004 4286217796
-0.023917144 0.086246669 0.76100004 4286348608
-0.022438096 0.086133339 0.76000005 4286283579
-0.021018097 0.086246669 0.76100004 4286218532
-0.019568572 0.086246669 0.76100004 4286283533
-0.01809524 0.086133339 0.76000005 4286282793
-0.01664762 0.086133339 0.76000005 4286283332
-0.015200001 0.086133339 0.76000005 4286348617
-0.013770477 0.086246669 0.76100004 4286216526
-0.012304762 0.086133339 0.76000005 4286149704
-0.010871429 0.086246669 0.76100004 4285953601
-0.0094219055 0.086246669 0.76100004 4285691704
-0.007993334 0.086473338 0.76300001 4285298735
-0.0065400004 0.086473338 0.76300001 4284839985
-0.0050866669 0.086473338 0.76300001 4285036083
-0.0036238097 0.086246669 0.76100004 4285297971
-0.0021800001 0.086473338 0.76300001 4285233202
-0.00072476198 0.086246669 0.76100004 4285234485
0.00072476198 0.086246669 0.76100004 4285298488
0.0021742859 0.086246669 0.76100004 4285363514
0.0036238097 0.086246669 0.76100004 4285429307
0.0050733336 0.086246669 0.76100004 4285560378
0.0065400004 0.086473338 0.76300001 4285626424
0.007993334 0.086473338 0.76300001 4285692474
0.0094466675 0.086473338 0.76300001 4285955643
0.010900001 0.086473338 0.76300001 4286284094
0.012353335 0.086473338 0.76300001 4286086977
0.013806667 0.086473338 0.76300001 4285889101
0.015260001 0.086473338 0.76300001 4285823832
0.016713334 0.086473338 0.76300001 4285758279
0.018166669 0.086473338 0.76300001 4285823797
0.019620001 0.086473338 0.76300001 4285889855
0.021073334 0.086473338 0.76300001 4284505928
0.022526668 0.086473338 0.76300001 4283118903
0.023980001 0.086473338 0.76300001 4282654502
0.025433335 0.086473338 0.76300001 4282194460
0.026957145 0.086700007 0.76500005 4281932306
0.028414287 0.086700007 0.76500005 4281604887
0.02987143 0.086700007 0.76500005 4281670172
0.031328574 0.086700007 0.76500005 4281734944
0.032700002 0.086473338 0.76300001 4281735715
0.034153335 0.086473338 0.76300001 4281735698
-0.036817145 0.08735048 0.75800002 4285296670
-0.035373334 0.08735048 0.75800002 4285296180
-0.033929527 0.08735048 0.75800002 4285427274
-0.032571431 0.087580957 0.76000005 4285494088
-0.031041907 0.08735048 0.75800002 4285560647
-0.029598096 0.08735048 0.75800002 4285627200
-0.028228574 0.087580957 0.76000005 4285825082
-0.026780954 0.087580957 0.76000005 4286021698
-0.025333336 0.087580957 0.76000005 4286218314
-0.023885716 0.087580957 0.76000005 4286348874
-0.022438096 0.087580957 0.76000005 4286283339
-0.020990478 0.087580957 0.76000005 4286152247
-0.019542858 0.087580957 0.76000005 4286151971
-0.01809524 0.087580957 0.76000005 4286086449
-0.01664762 0.087580957 0.76000005 4286152255
-0.015200001 0.087580957 0.76000005 4286151742
-0.013752382 0.087580957 0.76000005 4286085437
-0.012304762 0.087580957 0.76000005 4286019393
-0.010857143 0.087580957 0.76000005 4285823044
-0.0094095245 0.087580957 0.76000005 4285560637
-0.0079723811 0.087696195 0.76100004 4285364022
-0.0065228576 0.087696195 0.76100004 4285167157
-0.0050733336 0.087696195 0.76100004 4285100597
-0.0036190478 0.087580957 0.76000005 4284969521
-0.0021742859 0.087696195 0.76100004 4284903214
-0.00072380959 0.087580957 0.76000005 4284838705
0.00072380959 0.087580957 0.76000005 4284904500
0.0021742859 0.087696195 0.76100004 4284970037
0.0036190478 0.087580957 0.76000005 4285167157
0.0050666672 0.087580957 0.76000005 4285363507
0.0065228576 0.087696195 0.76100004 4285560881
0.007993334 0.087926671 0.76300001 4285692472
0.0094466675 0.087926671 0.76300001 4286020671
0.010900001 0.087926671 0.76300001 4286348607
0.012353335 0.087926671 0.76300001 4286086975
0.013806667 0.087926671 0.76300001 4285824585
0.015260001 0.087926671 0.76300001 4285758804
0.016713334 0.087926671 0.76300001 4285692747
0.018119048 0.087696195 0.76100004 4285758787
0.019568572 0.087696195 0.76100004 4285821768
0.021018097 0.087696195 0.76100004 4284771406
0.022526668 0.087926671 0.76300001 4283648826
0.023980001 0.087926671 0.76300001 4283047463
0.025433335 0.087926671 0.76300001 4282456344
0.026886668 0.087926671 0.76300001 4281997322
0.028340003 0.087926671 0.76300001 4281473806
0.029793335 0.087926671 0.76300001 4281604627
0.03124667 0.087926671 0.76300001 4281670423
0.032485716 0.08735048 0.75800002 4281736219
0.033929527 0.08735048 0.75800002 4281736206
-0.038260955 0.088794291 0.75800002 4285230625
-0.036817145 0.088794291 0.75800002 4285296390
-0.035373334 0.088794291 0.75800002 4285361700
-0.033929527 0.088794291 0.75800002 4285427777
-0.032485716 0.088794291 0.75800002 4285493829
-0.031041907 0.088794291 0.75800002 4285429577
-0.029598096 0.088794291 0.75800002 4285430595
-0.028228574 0.089028575 0.76000005 4285562428
-0.026710479 0.088794291 0.75800002 4285693766
-0.025266668 0.088794291 0.75800002 4285824591
-0.023822859 0.088794291 0.75800002 4285955669
-0.022379048 0.088794291 0.75800002 4285824347
-0.020935239 0.088794291 0.75800002 4285693258
-0.01949143 0.088794291 0.75800002 4285626936
-0.01804762 0.088794291 0.75800002 4285561913
-0.016603811 0.088794291 0.75800002 4285889337
-0.015160001 0.088794291 0.75800002 4286151219
-0.013716191 0.088794291 0.75800002 4286085420
-0.012272382 0.088794291 0.75800002 4286085178
-0.010828572 0.088794291 0.75800002 4285888583
-0.0093847625 0.088794291 0.75800002 4285756994
-0.0079619056 0.089028575 0.76000005 4285560637
-0.0065142862 0.089028575 0.76000005 4285364282
-0.0050666672 0.089028575 0.76000005 4285232438
-0.0036190478 0.089028575 0.76000005 4285034800
-0.0021714286 0.089028575 0.76000005 4284771881
-0.00072380959 0.089028575 0.76000005 4284509485
0.00072380959 0.089028575 0.76000005 4284444976
0.0021742859 0.08914572 0.76100004 4284379696
0.0036190478 0.089028575 0.76000005 4284707119
0.0050666672 0.089028575 0.76000005 4285034541
0.0065142862 0.089028575 0.76000005 4285232170
0.0079723811 0.08914572 0.76100004 4285430071
0.0094219055 0.08914572 0.76100004 4285626435
0.010871429 0.08914572 0.76100004 4285823040
0.012272382 0.088794291 0.75800002 4285561149
0.013752382 0.089028575 0.76000005 4285300806
0.015160001 0.088794291 0.75800002 4285101903
0.016603811 0.088794291 0.75800002 4284905552
0.01809524 0.089028575 0.76000005 4284771664
0.019542858 0.089028575 0.76000005 4284704082
0.020990478 0.089028575 0.76000005 4284114515
0.022379048 0.088794291 0.75800002 4283525950
0.023885716 0.089028575 0.76000005 4283119912
0.025333336 0.089028575 0.76000005 4282717461
0.026886668 0.089380004 0.76300001 4282259713
0.028154287 0.088794291 0.75800002 4281868037
0.029598096 0.088794291 0.75800002 4281868041
0.031041907 0.088794291 0.75800002 4281868046
0.032400001 0.088560008 0.75600004 4281933074
0.033840001 0.088560008 0.75600004 4281932554
-0.038160004 0.090000004 0.75600004 4285099562
-0.036720004 0.090000004 0.75600004 4285230874
-0.035280004 0.090000004 0.75600004 4285362735
-0.033840001 0.090000004 0.75600004 4285428292
-0.032400001 0.090000004 0.75600004 4285494344
-0.030960003 0.090000004 0.75600004 4285363788
-0.029520001 0.090000004 0.75600004 4285167428
-0.028080001 0.090000004 0.75600004 4285299772
-0.026640002 0.090000004 0.75600004 4285364797
-0.025200002 0.090000004 0.75600004 4285430335
-0.023760002 0.090000004 0.75600004 4285495606
-0.022320002 0.090000004 0.75600004 4285364526
-0.020880001 0.090000004 0.75600004 4285166383
-0.01949143 0.090238102 0.75800002 4285100848
-0.018000001 0.090000004 0.75600004 4285036345
-0.016560001 0.090000004 0.75600004 4285626178
-0.015120001 0.090000004 0.75600004 4286150465
-0.013716191 0.090238102 0.75800002 4286150463
-0.012240001 0.090000004 0.75600004 4286085443
-0.0108 0.090000004 0.75600004 4286019911
-0.0093600005 0.090000004 0.75600004 4285954365
-0.0079409527 0.090238102 0.75800002 4285757236
-0.0065142862 0.0904762 0.76000005 4285560623
-0.0050533335 0.090238102 0.75800002 4285364010
-0.0036095241 0.090238102 0.75800002 4285100064
-0.0021714286 0.0904762 0.76000005 4284639510
-0.0007219048 0.090238102 0.75800002 4284180251
0.0007219048 0.090238102 0.75800002 4283985951
0.0021657145 0.090238102 0.75800002 4283722790
0.0036095241 0.090238102 0.75800002 4284181549
0.0050533335 0.090238102 0.75800002 4284639781
0.0064971433 0.090238102 0.75800002 4284903196
0.0079409527 0.090238102 0.75800002 4285166118
0.0093847625 0.090238102 0.75800002 4285232177
0.010828572 0.090238102 0.75800002 4285296429
0.012272382 0.090238102 0.75800002 4285033513
0.013716191 0.090238102 0.75800002 4284705586
0.015160001 0.090238102 0.75800002 4284376636
0.016603811 0.090238102 0.75800002 4284047681
0.01804762 0.090238102 0.75800002 4283848775
0.01949143 0.090238102 0.75800002 4283588416
0.020935239 0.090238102 0.75800002 4283456313
0.022379048 0.090238102 0.75800002 4283325735
0.023822859 0.090238102 0.75800002 4283123477
0.025266668 0.090238102 0.75800002 4282916368
0.026710479 0.090238102 0.75800002 4282587148
0.028154287 0.090238102 0.75800002 4282261003
0.029598096 0.090238102 0.75800002 4282196490
0.030960003 0.090000004 0.75600004 4282065167
0.032400001 0.090000004 0.75600004 4282129428
0.033840001 0.090000004 0.75600004 4282129421
0.035280004 0.090000004 0.75600004 4282262022
-0.038160004 0.091440007 0.75600004 4285100340
-0.03667143 0.091319054 0.75500005 4285100333
-0.035233337 0.091319054 0.75500005 4285167418
-0.033795241 0.091319054 0.75500005 4285166662
-0.032357145 0.091319054 0.75500005 4285167434
-0.030919049 0.091319054 0.75500005 4285100366
-0.029480955 0.091319054 0.75500005 4285034565
-0.028042858 0.091319054 0.75500005 4285427771
-0.026640002 0.091440007 0.75600004 4285886773
-0.025200002 0.091440007 0.75600004 4286017582
-0.023760002 0.091440007 0.75600004 4286214936
-0.022320002 0.091440007 0.75600004 4286607873
-0.020852383 0.091319054 0.75500005 4286997268
-0.019440001 0.091440007 0.75600004 4286936359
-0.018000001 0.091440007 0.75600004 4286936121
-0.016538097 0.091319054 0.75500005 4286279499
-0.015100001 0.091319054 0.75500005 4285625167
-0.013661906 0.091319054 0.75500005 4285690962
-0.01222381 0.091319054 0.75500005 4285824076
-0.010785715 0.091319054 0.75500005 4285691718
-0.0093476195 0.091319054 0.75500005 4285561913
-0.0079200007 0.091440007 0.75600004 4285363499
-0.0064800004 0.091440007 0.75600004 4285167397
-0.0050400002 0.091440007 0.75600004 4284838174
-0.0036000002 0.091440007 0.75600004 4284509713
-0.0021657145 0.091681913 0.75800002 4284175363
-0.0007219048 0.091681913 0.75800002 4283848457
0.00072000007 0.091440007 0.75600004 4283781134
0.0021600001 0.091440007 0.75600004 4283785757
0.0036000002 0.091440007 0.75600004 4284440619
0.0050400002 0.091440007 0.75600004 4285094685
0.0064800004 0.091440007 0.75600004 4285557006
0.0079200007 0.091440007 0.75600004 4286016278
0.0093600005 0.091440007 0.75600004 4286149406
0.0108 0.091440007 0.75600004 4286341914
0.012240001 0.091440007 0.75600004 4286341909
0.013680001 0.091440007 0.75600004 4286339103
0.015120001 0.091440007 0.75600004 4286146344
0.016560001 0.091440007 0.75600004 4285942835
0.018000001 0.091440007 0.75600004 4286409790
0.01949143 0.091681913 0.75800002 4286865967
0.020935239 0.091681913 0.75800002 4287132703
0.022320002 0.091440007 0.75600004 4287391504
0.023760002 0.091440007 0.75600004 4284958721
0.025200002 0.091440007 0.75600004 4282515980
0.026710479 0.091681913 0.75800002 4282453782
0.028080001 0.091440007 0.75600004 4282457616
0.029520001 0.091440007 0.75600004 4282393098
0.031041907 0.091681913 0.75800002 4282328336
0.032485716 0.091681913 0.75800002 4282260757
0.033840001 0.091440007 0.75600004 4282258704
0.035280004 0.091440007 0.75600004 4282327306
-0.038008574 0.092511438 0.75300002 4285033510
-0.036574289 0.092511438 0.75300002 4285034024
-0.035140004 0.092511438 0.75300002 4284969012
-0.033705715 0.092511438 0.75300002 4284902977
-0.03227143 0.092511438 0.75300002 4284771658
-0.030837145 0.092511438 0.75300002 4284835924
-0.02940286 0.092511438 0.75300002 4284903251
-0.027968572 0.092511438 0.75300002 4285621330
-0.026604764 0.092757151 0.75500005 4286346575
-0.025100002 0.092511438 0.75300002 4286668876
-0.023665715 0.092511438 0.75300002 4286938430
-0.02223143 0.092511438 0.75300002 4287854897
-0.020797145 0.092511438 0.75300002 4288776266
-0.019362858 0.092511438 0.75300002 4288842083
-0.017928572 0.092511438 0.75300002 4288840516
-0.016494287 0.092511438 0.75300002 4286930726
-0.015040001 0.092388578 0.75200003 4285034027
-0.013625715 0.092511438 0.75300002 4285294895
-0.01219143 0.092511438 0.75300002 4285560370
-0.010757144 0.092511438 0.75300002 4285360692
-0.0093228575 0.092511438 0.75300002 4285166647
-0.0079095243 0.092757151 0.75500005 4284966971
-0.006471429 0.092757151 0.75500005 4284773948
-0.0050400002 0.092880003 0.75600004 4284377406
-0.0036000002 0.092880003 0.75600004 4283917098
-0.0021600001 0.092880003 0.75600004 4283704086
-0.00072000007 0.092880003 0.75600004 4283453711
0.00072000007 0.092880003 0.75600004 4283635464
0.0021571431 0.092757151 0.75500005 4283850788
0.0036000002 0.092880003 0.75600004 4284700736
0.0050400002 0.092880003 0.75600004 4285561156
0.0064800004 0.092880003 0.75600004 4286213960
0.0079200007 0.092880003 0.75600004 4286875738
0.0093600005 0.092880003 0.75600004 4287138156
0.0108 0.092880003 0.75600004 4287333732
0.012240001 0.092880003 0.75600004 4287653212
0.013680001 0.092880003 0.75600004 4287990629
0.015120001 0.092880003 0.75600004 4287926894
0.016560001 0.092880003 0.75600004 4287862388
0.018000001 0.092880003 0.75600004 4288981371
0.019440001 0.092880003 0.75600004 4290092667
0.020880001 0.092880003 0.75600004 4290751355
0.022290478 0.092757151 0.75500005 4291399248
0.023728574 0.092757151 0.75500005 4286738214
0.025200002 0.092880003 0.75600004 4282064409
0.026640002 0.092880003 0.75600004 4282384908
0.028080001 0.092880003 0.75600004 4282653449
0.029480955 0.092757151 0.75500005 4282655239
0.030960003 0.092880003 0.75600004 4282590220
0.032400001 0.092880003 0.75600004 4282457616
0.033795241 0.092757151 0.75500005 4282327054
0.035233337 0.092757151 0.75500005 4282459148
0.036574289 0.092511438 0.75300002 4282590475
-0.037857145 0.093571432 0.75000006 4286080536
-0.036428574 0.093571432 0.75000006 4286673187
-0.035000004 0.093571432 0.75000006 4287262255
-0.03357143 0.093571432 0.75000006 4287197499
-0.032142859 0.093571432 0.75000006 4287129162
-0.030714288 0.093571432 0.75000006 4287788377
-0.029285716 0.093571432 0.75000006 4288446817
-0.027857145 0.093571432 0.75000006 4288842856
-0.026428573 0.093571432 0.75000006 4289241193
-0.025066668 0.093820959 0.75200003 4289896298
-0.023634287 0.093820959 0.75200003 4290488677
-0.022201907 0.093820959 0.75200003 4291014240
-0.020769525 0.093820959 0.75200003 4291541375
-0.019337144 0.093820959 0.75200003 4291670430
-0.017904762 0.093820959 0.75200003 4291801168
-0.016472382 0.093820959 0.75200003 4289892865
-0.015040001 0.093820959 0.75200003 4288051975
-0.01360762 0.093820959 0.75200003 4288515852
-0.012175239 0.093820959 0.75200003 4289038615
-0.010742858 0.093820959 0.75200003 4288910626
-0.0093228575 0.093945719 0.75300002 4288709174
-0.0079095243 0.094195247 0.75500005 4288844106
-0.006471429 0.094195247 0.75500005 4288974420
-0.0050333338 0.094195247 0.75500005 4288649566
-0.0035952383 0.094195247 0.75500005 4288320067
-0.0021600001 0.094320007 0.75600004 4288385320
-0.00072000007 0.094320007 0.75600004 4288394261
0.00071904768 0.094195247 0.75500005 4288518914
0.0021514287 0.093945719 0.75300002 4288655403
0.0035857146 0.093945719 0.75300002 4288982868
0.0050333338 0.094195247 0.75500005 4289315179
0.006471429 0.094195247 0.75500005 4289442689
0.0079095243 0.094195247 0.75500005 4289641886
0.0093476195 0.094195247 0.75500005 4289246138
0.010785715 0.094195247 0.75500005 4288922799
0.01222381 0.094195247 0.75500005 4288720547
0.013661906 0.094195247 0.75500005 4288536236
0.015100001 0.094195247 0.75500005 4288068020
0.016538097 0.094195247 0.75500005 4287615158
0.017976191 0.094195247 0.75500005 4287935671
0.019414287 0.094195247 0.75500005 4288332487
0.020852383 0.094195247 0.75500005 4288457943
0.02223143 0.093945719 0.75300002 4288657041
0.023665715 0.093945719 0.75300002 4285358410
0.025100002 0.093945719 0.75300002 4281992230
0.026604764 0.094195247 0.75500005 4282127617
0.027968572 0.093945719 0.75300002 4282263555
0.02940286 0.093945719 0.75300002 4282525956
0.030837145 0.093945719 0.75300002 4282788104
0.03227143 0.093945719 0.75300002 4282590987
0.033660956 0.093820959 0.75200003 4282459917
0.035140004 0.093945719 0.75300002 4282525198
0.036525715 0.093820959 0.75200003 4282590990
-0.037857145 0.095000006 0.75000006 4287137103
-0.036428574 0.095000006 0.75000006 4288315469
-0.035000004 0.095000006 0.75000006 4289498204
-0.03357143 0.095000006 0.75000006 4289495915
-0.032142859 0.095000006 0.75000006 4289497987
-0.030714288 0.095000006 0.75000006 4290741148
-0.029285716 0.095000006 0.75000006 4291931286
-0.027857145 0.095000006 0.75000006 4292062352
-0.026428573 0.095000006 0.75000006 4292134046
-0.025000002 0.095000006 0.75000006 4293120939
-0.02357143 0.095000006 0.75000006 4294038957
-0.022142859 0.095000006 0.75000006 4294172335
-0.020714287 0.095000006 0.75000006 4294302396
-0.019285716 0.095000006 0.75000006 4294562506
-0.017857144 0.095000006 0.75000006 4294758301
-0.016428573 0.095000006 0.75000006 4292918385
-0.015000001 0.095000006 0.75000006 4291018095
-0.013571429 0.095000006 0.75000006 4291808877
-0.012142858 0.095000006 0.75000006 4292526709
-0.010714286 0.095000006 0.75000006 4292403070
-0.0093104765 0.095253341 0.75200003 4292262788
-0.0078885723 0.095380008 0.75300002 4292725642
-0.0064542862 0.095380008 0.75300002 4293117841
-0.0050200005 0.095380008 0.75300002 4292926361
-0.0035857146 0.095380008 0.75300002 4292725644
-0.0021514287 0.095380008 0.75300002 4293057151
-0.00071714289 0.095380008 0.75300002 4293319776
0.00071714289 0.095380008 0.75300002 4293390657
0.0021514287 0.095380008 0.75300002 4293447782
0.0035857146 0.095380008 0.75300002 4293259916
0.0050200005 0.095380008 0.75300002 4292986770
0.0064542862 0.095380008 0.75300002 4292730777
0.0078885723 0.095380008 0.75300002 4292392355
0.0093228575 0.095380008 0.75300002 4291412910
0.010757144 0.095380008 0.75300002 4290422945
0.01222381 0.095633343 0.75500005 4289704085
0.013661906 0.095633343 0.75500005 4288980888
0.015100001 0.095633343 0.75500005 4288193180
0.016538097 0.095633343 0.75500005 4287336851
0.017976191 0.095633343 0.75500005 4286944137
0.019362858 0.095380008 0.75300002 4286481544
0.020769525 0.095253341 0.75200003 4286221447
0.022201907 0.095253341 0.75200003 4285885801
0.023665715 0.095380008 0.75300002 4283914571
0.025066668 0.095253341 0.75200003 4281938224
0.026534287 0.095380008 0.75300002 4281935124
0.027931431 0.095253341 0.75200003 4281870355
0.029363811 0.095253341 0.75200003 4282396945
0.030796193 0.095253341 0.75200003 4282920206
0.032228574 0.095253341 0.75200003 4282789131
0.033660956 0.095253341 0.75200003 4282591242
0.035093337 0.095253341 0.75200003 4282590985
-0.037857145 0.096428581 0.75000006 4290950789
-0.036428574 0.096428581 0.75000006 4291339639
-0.03490667 0.096171431 0.74800003 4291739017
-0.03357143 0.096428581 0.75000006 4291602842
-0.032057144 0.096171431 0.74800003 4291477437
-0.030632382 0.096171431 0.74800003 4292332255
-0.029207621 0.096171431 0.74800003 4293263052
-0.027782859 0.096171431 0.74800003 4293256376
-0.026358098 0.096171431 0.74800003 4293324754
-0.025000002 0.096428581 0.75000006 4293782252
-0.02357143 0.096428581 0.75000006 4294179317
-0.022142859 0.096428581 0.75000006 4293914110
-0.020714287 0.096428581 0.75000006 4293656314
-0.019234287 0.096171431 0.74800003 4293584117
-0.017809525 0.096171431 0.74800003 4293525227
-0.016384764 0.096171431 0.74800003 4292139233
-0.014960001 0.096171431 0.74800003 4290834647
-0.013535239 0.096171431 0.74800003 4290299853
-0.012110477 0.096171431 0.74800003 4289778643
-0.010685715 0.096171431 0.74800003 4289708505
-0.0092857145 0.096428581 0.75000006 4289642706
-0.0078780958 0.096685722 0.75200003 4289903818
-0.0064457147 0.096685722 0.75200003 4290176719
-0.0050133336 0.096685722 0.75200003 4289972435
-0.0035809525 0.096685722 0.75200003 4289783509
-0.0021485717 0.096685722 0.75200003 4289317590
-0.00071619055 0.096685722 0.75200003 4288868779
0.00071619055 0.096685722 0.75200003 4288593024
0.0021485717 0.096685722 0.75200003 4288392866
0.0035809525 0.096685722 0.75200003 4288192451
0.0050133336 0.096685722 0.75200003 4288055738
0.0064542862 0.09681429 0.75300002 4287860913
0.0078885723 0.09681429 0.75300002 4287657641
0.0093228575 0.09681429 0.75300002 4287263649
0.010757144 0.09681429 0.75300002 4286933396
0.012175239 0.096685722 0.75200003 4286411910
0.01360762 0.096685722 0.75200003 4285951109
0.015040001 0.096685722 0.75200003 4285425540
0.016472382 0.096685722 0.75200003 4284890736
0.017928572 0.09681429 0.75300002 4284633691
0.019337144 0.096685722 0.75200003 4284362825
0.020769525 0.096685722 0.75200003 4284301878
0.022201907 0.096685722 0.75200003 4284225601
0.023634287 0.096685722 0.75200003 4283317068
0.025066668 0.096685722 0.75200003 4282400826
0.02649905 0.096685722 0.75200003 4282264103
0.027931431 0.096685722 0.75200003 4282064931
0.029363811 0.096685722 0.75200003 4282591262
0.030837145 0.09681429 0.75300002 4283116309
0.032228574 0.096685722 0.75200003 4282984459
0.033660956 0.096685722 0.75200003 4282787079
0.035093337 0.096685722 0.75200003 4282656515
-0.037857145 0.097857147 0.75000006 4294749584
-0.03633143 0.097596198 0.74800003 4294353016
-0.03490667 0.097596198 0.74800003 4293895306
-0.033481907 0.097596198 0.74800003 4293699228
-0.032057144 0.097596198 0.74800003 4293439931
-0.030632382 0.097596198 0.74800003 4293978074
-0.029207621 0.097596198 0.74800003 4294500822
-0.027782859 0.097596198 0.74800003 4294506194
-0.026358098 0.097596198 0.74800003 4294497756
-0.024933334 0.097596198 0.74800003 4294438630
-0.023508573 0.097596198 0.74800003 4294300899
-0.022083811 0.097596198 0.74800003 4293647839
-0.020659048 0.097596198 0.74800003 4292987095
-0.019234287 0.097596198 0.74800003 4292591824
-0.017809525 0.097596198 0.74800003 4292197580
-0.016384764 0.097596198 0.74800003 4291409865
-0.014960001 0.097596198 0.74800003 4290555052
-0.013535239 0.097596198 0.74800003 4288776847
-0.012110477 0.097596198 0.74800003 4287009428
-0.010685715 0.097596198 0.74800003 4287009178
-0.0092857145 0.097857147 0.75000006 4287009163
-0.0078780958 0.098118104 0.75200003 4287069565
-0.0064457147 0.098118104 0.75200003 4287140482
-0.0050133336 0.098118104 0.75200003 4287003014
-0.0035809525 0.098118104 0.75200003 4286810751
-0.0021428573 0.097857147 0.75000006 4285560439
-0.00071428576 0.097857147 0.75000006 4284318821
0.00071619055 0.098118104 0.75200003 4283784788
0.0021428573 0.097857147 0.75000006 4283264357
0.0035809525 0.098118104 0.75200003 4283192439
0.0050000004 0.097857147 0.75000006 4283066995
0.0064457147 0.098118104 0.75200003 4282999151
0.0078780958 0.098118104 0.75200003 4282930784
0.0093104765 0.098118104 0.75200003 4283181393
0.010757144 0.098248579 0.75300002 4283387478
0.01219143 0.098248579 0.75300002 4283124315
0.013625715 0.098248579 0.75300002 4282865752
0.015060001 0.098248579 0.75300002 4282666582
0.016472382 0.098118104 0.75200003 4282404172
0.017928572 0.098248579 0.75300002 4282337347
0.019337144 0.098118104 0.75200003 4282270258
0.020769525 0.098118104 0.75200003 4282397218
0.022201907 0.098118104 0.75200003 4282528555
0.023634287 0.098118104 0.75200003 4282727219
0.025066668 0.098118104 0.75200003 4282857521
0.02649905 0.098118104 0.75200003 4282589743
0.027931431 0.098118104 0.75200003 4282261799
0.029363811 0.098118104 0.75200003 4282786336
0.030796193 0.098118104 0.75200003 4283311637
0.032228574 0.098118104 0.75200003 4283180042
0.033660956 0.098118104 0.75200003 4282984455
0.035093337 0.098118104 0.75200003 4282788099
0.036525715 0.098118104 0.75200003 4282525960
-0.03628286 0.098888576 0.74700004 4291267192
-0.034860004 0.098888576 0.74700004 4291071371
-0.033481907 0.099020958 0.74800003 4290870430
-0.032057144 0.099020958 0.74800003 4290672570
-0.030632382 0.099020958 0.74800003 4291074005
-0.029207621 0.099020958 0.74800003 4291406304
-0.027745716 0.098888576 0.74700004 4291273707
-0.026358098 0.099020958 0.74800003 4291133926
-0.024933334 0.099020958 0.74800003 4291138784
-0.023508573 0.099020958 0.74800003 4291070928
-0.022083811 0.099020958 0.74800003 4290744512
-0.020659048 0.099020958 0.74800003 4290479029
-0.019234287 0.099020958 0.74800003 4290481322
-0.017785715 0.098888576 0.74700004 4290477229
-0.016384764 0.099020958 0.74800003 4289892016
-0.014940001 0.098888576 0.74700004 4289297792
-0.013517144 0.098888576 0.74700004 4287328080
-0.012094286 0.098888576 0.74700004 4285356629
-0.010671429 0.098888576 0.74700004 4285690970
-0.0092609534 0.099020958 0.74800003 4286019141
-0.0078571429 0.099285722 0.75000006 4286083888
-0.0064285719 0.099285722 0.75000006 4286147381
-0.0050000004 0.099285722 0.75000006 4286015801
-0.0035714288 0.099285722 0.75000006 4285944617
-0.0021428573 0.099285722 0.75000006 4285358104
-0.00071428576 0.099285722 0.75000006 4284763168
0.00071428576 0.099285722 0.75000006 4284438567
0.0021428573 0.099285722 0.75000006 4284110121
0.0035714288 0.099285722 0.75000006 4283916074
0.0050000004 0.099285722 0.75000006 4283722028
0.0064457147 0.099550486 0.75200003 4283850797
0.0078780958 0.099550486 0.75200003 4284045079
0.0093104765 0.099550486 0.75200003 4284371969
0.010742858 0.099550486 0.75200003 4284766744
0.012175239 0.099550486 0.75200003 4284769071
0.01360762 0.099550486 0.75200003 4284832555
0.015040001 0.099550486 0.75200003 4284638503
0.016472382 0.099550486 0.75200003 4284440617
0.017928572 0.09968286 0.75300002 4284703530
0.019337144 0.099550486 0.75200003 4284964124
0.020769525 0.099550486 0.75200003 4283979022
0.022201907 0.099550486 0.75200003 4283057940
0.023634287 0.099550486 0.75200003 4283056922
0.025066668 0.099550486 0.75200003 4283057192
