# .PCD v0.7 - Point Cloud Data file format
VERSION 0.7
FIELDS x y z rgba
SIZE 4 4 4 4
TYPE F F F U
COUNT 1 1 1 1
WIDTH 1141
HEIGHT 1
VIEWPOINT 0 0 0 1 0 0 0
POINTS 1141
DATA ascii
-0.080151431 0.21472669 1.039 4285225823
-0.078398101 0.21534668 1.0420001 4285225320
-0.076413341 0.21534668 1.0420001 4285159524
-0.074642859 0.21596669 1.0450001 4285749857
-0.072652385 0.21596669 1.0450001 4286277228
-0.07066191 0.21596669 1.0450001 4286544760
-0.068868577 0.21658668 1.0480001 4286802801
-0.066872388 0.21658668 1.0480001 4286798442
-0.064876191 0.21658668 1.0480001 4286800234
-0.062880002 0.21658668 1.0480001 4285947499
-0.060883813 0.21658668 1.0480001 4285090872
-0.058887623 0.21658668 1.0480001 4284096006
-0.1581962 0.22066858 1.0580001 4281868290
-0.1557381 0.22004287 1.0550001 4281868546
-0.15372857 0.22004287 1.0550001 4281936643
-0.15128763 0.21941715 1.052 4282725124
-0.14928383 0.21941715 1.052 4283512855
-0.14672001 0.21858287 1.0480001 4283775017
-0.14430954 0.21795715 1.0450001 4284036916
-0.14150192 0.21670572 1.039 4284169022
-0.13912001 0.21608001 1.036 4284367701
-0.13714668 0.21608001 1.036 4284498283
-0.13478191 0.2154543 1.033 4284629335
-0.13242859 0.21482858 1.0300001 4284630595
-0.12958001 0.21336858 1.023 4284632128
-0.12763144 0.21336858 1.023 4284696380
-0.1253143 0.21274287 1.0200001 4284694342
-0.12300858 0.21211715 1.0170001 4284827983
-0.12107144 0.21211715 1.0170001 4284966504
-0.11913429 0.21211715 1.0170001 4286345856
-0.11685143 0.21149144 1.0140001 4287722623
-0.11492001 0.21149144 1.0140001 4287658621
-0.11298858 0.21149144 1.0140001 4287594885
-0.1117143 0.21274287 1.0200001 4286936205
-0.10977144 0.21274287 1.0200001 4286278005
-0.10814572 0.21336858 1.023 4286473309
-0.10619715 0.21336858 1.023 4286670956
-0.10424858 0.21336858 1.023 4286803323
-0.10260001 0.21399429 1.026 4286933123
-0.10064572 0.21399429 1.026 4287329163
-0.098691434 0.21399429 1.026 4287723911
-0.096737146 0.21399429 1.026 4287593347
-0.095152386 0.21482858 1.0300001 4287528316
-0.093190484 0.21482858 1.0300001 4287528564
-0.091228575 0.21482858 1.0300001 4287528564
-0.089266673 0.21482858 1.0300001 4286211700
-0.087559052 0.2154543 1.033 4284964710
-0.085591435 0.2154543 1.033 4285226839
-0.083623812 0.2154543 1.033 4285554514
-0.081656195 0.2154543 1.033 4285160269
-0.080151431 0.21670572 1.039 4284766033
-0.078398101 0.21733144 1.0420001 4284830292
-0.076413341 0.21733144 1.0420001 4284961620
-0.074642859 0.21795715 1.0450001 4285421139
-0.072652385 0.21795715 1.0450001 4285880430
-0.070864767 0.21858287 1.0480001 4286542728
-0.068868577 0.21858287 1.0480001 4287199357
-0.067127623 0.21941715 1.052 4286799729
-0.065123811 0.21941715 1.052 4286468974
-0.063120008 0.21941715 1.052 4285750379
-0.061116196 0.21941715 1.052 4285094971
-0.058887623 0.21858287 1.0480001 4284165898
-0.1581962 0.22268382 1.0580001 4281737738
-0.15618096 0.22268382 1.0580001 4282197778
-0.15372857 0.2220524 1.0550001 4282657810
-0.15128763 0.22142097 1.052 4283053330
-0.14928383 0.22142097 1.052 4283381791
-0.14672001 0.22057906 1.0480001 4283709485
-0.14389525 0.2193162 1.0420001 4283971894
-0.14150192 0.21868478 1.039 4284169023
-0.13912001 0.21805334 1.036 4284366158
-0.13714668 0.21805334 1.036 4284432221
-0.13478191 0.21742192 1.033 4284498511
-0.13242859 0.2167905 1.0300001 4284564801
-0.12958001 0.21531716 1.023 4284631360
-0.12763144 0.21531716 1.023 4284631360
-0.1253143 0.21468572 1.0200001 4284630599
-0.12337144 0.21468572 1.0200001 4284695886
-0.12142858 0.21468572 1.0200001 4284701028
-0.11913429 0.2140543 1.0170001 4286148474
-0.11719715 0.2140543 1.0170001 4287591031
-0.11526 0.2140543 1.0170001 4287395957
-0.11332286 0.2140543 1.0170001 4287199612
-0.1117143 0.21468572 1.0200001 4286344579
-0.11009429 0.21531716 1.023 4285424493
-0.10814572 0.21531716 1.023 4285880151
-0.10619715 0.21531716 1.023 4286276964
-0.10424858 0.21531716 1.023 4286474097
-0.10260001 0.21594858 1.026 4286671234
-0.10064572 0.21594858 1.026 4287065748
-0.098691434 0.21594858 1.026 4287395725
-0.096737146 0.21594858 1.026 4287527814
-0.094782867 0.21594858 1.026 4287594114
-0.092828579 0.21594858 1.026 4287660414
-0.090874292 0.21594858 1.026 4287657590
-0.089266673 0.2167905 1.0300001 4286208622
-0.087559052 0.21742192 1.033 4284767328
-0.085591435 0.21742192 1.033 4284898899
-0.083623812 0.21742192 1.033 4284963918
-0.08189334 0.21805334 1.036 4284635209
-0.080151431 0.21868478 1.039 4284305229
-0.078172386 0.21868478 1.039 4284498770
-0.076413341 0.2193162 1.0420001 4284697683
-0.074642859 0.21994764 1.0450001 4285092181
-0.072860956 0.22057906 1.0480001 4285489764
-0.070864767 0.22057906 1.0480001 4286546291
-0.068868577 0.22057906 1.0480001 4287591277
-0.067127623 0.22142097 1.052 4286862952
-0.065123811 0.22142097 1.052 4286077542
-0.063120008 0.22142097 1.052 4285620837
-0.061116196 0.22142097 1.052 4285091640
-0.058887623 0.22057906 1.0480001 4284227339
-0.15864477 0.22533621 1.0610001 4281868051
-0.15618096 0.22469907 1.0580001 4282393634
-0.15416573 0.22469907 1.0580001 4282853921
-0.15171906 0.22406192 1.0550001 4283118367
-0.14928383 0.22342478 1.052 4283382056
-0.14672001 0.22257525 1.0480001 4283644209
-0.14389525 0.22130096 1.0420001 4283971896
-0.14150192 0.22066383 1.039 4284103231
-0.13912001 0.22002669 1.036 4284299335
-0.13714668 0.22002669 1.036 4284366415
-0.13478191 0.21938954 1.033 4284499015
-0.13242859 0.2187524 1.0300001 4284499774
-0.12996002 0.21790287 1.026 4284500801
-0.12763144 0.21726573 1.023 4284566596
-0.1253143 0.21662858 1.0200001 4284632136
-0.12337144 0.21662858 1.0200001 4284565836
-0.12107144 0.21599144 1.0170001 4284565856
-0.11913429 0.21599144 1.0170001 4286080628
-0.11685143 0.21535429 1.0140001 4287590000
-0.11492001 0.21535429 1.0140001 4287395436
-0.11298858 0.21535429 1.0140001 4287266419
-0.1117143 0.21662858 1.0200001 4286606201
-0.10977144 0.21662858 1.0200001 4285947493
-0.10782858 0.21662858 1.0200001 4286210641
-0.10619715 0.21726573 1.023 4286410332
-0.10424858 0.21726573 1.023 4286605926
-0.1023 0.21726573 1.023 4286736002
-0.10035144 0.21726573 1.023 4287132573
-0.098691434 0.21790287 1.026 4287462035
-0.096737146 0.21790287 1.026 4287528072
-0.094782867 0.21790287 1.026 4287659400
-0.092828579 0.21790287 1.026 4287725447
-0.091228575 0.2187524 1.0300001 4287791223
-0.089266673 0.2187524 1.0300001 4286080103
-0.087304771 0.2187524 1.0300001 4284373595
-0.085591435 0.21938954 1.033 4284503118
-0.083866671 0.22002669 1.036 4284635465
-0.082130484 0.22066383 1.039 4284305732
-0.080151431 0.22066383 1.039 4283910730
-0.078398101 0.22130096 1.0420001 4284237904
-0.076413341 0.22130096 1.0420001 4284631635
-0.074642859 0.2219381 1.0450001 4285091670
-0.072860956 0.22257525 1.0480001 4285554010
-0.070864767 0.22257525 1.0480001 4286346334
-0.068868577 0.22257525 1.0480001 4287200350
-0.067127623 0.22342478 1.052 4286669662
-0.065123811 0.22342478 1.052 4286143839
-0.063120008 0.22342478 1.052 4285883231
-0.061116196 0.22342478 1.052 4285620277
-0.059112385 0.22342478 1.052 4284100875
-0.15864477 0.22735716 1.0610001 4281998603
-0.15662383 0.22735716 1.0610001 4282523925
-0.15416573 0.2267143 1.0580001 4283051291
-0.15171906 0.22607145 1.0550001 4283249185
-0.14928383 0.22542858 1.052 4283381545
-0.14672001 0.22457144 1.0480001 4283643954
-0.14430954 0.22392859 1.0450001 4283906357
-0.14150192 0.22264287 1.039 4284038201
-0.13912001 0.22200002 1.036 4284169024
-0.13714668 0.22200002 1.036 4284366406
-0.13478191 0.22135715 1.033 4284498753
-0.13281429 0.22135715 1.033 4284434748
-0.12996002 0.21985716 1.026 4284369723
-0.12763144 0.21921431 1.023 4284501817
-0.1253143 0.21857144 1.0200001 4284566846
-0.12337144 0.21857144 1.0200001 4284500036
-0.12142858 0.21857144 1.0200001 4284437339
-0.11913429 0.21792859 1.0170001 4286017650
-0.11719715 0.21792859 1.0170001 4287524975
-0.11492001 0.21728572 1.0140001 4287394412
-0.11298858 0.21728572 1.0140001 4287262831
-0.1117143 0.21857144 1.0200001 4286866291
-0.10977144 0.21857144 1.0200001 4286473574
-0.10814572 0.21921431 1.023 4286539097
-0.10619715 0.21921431 1.023 4286540900
-0.10424858 0.21921431 1.023 4286672238
-0.1023 0.21921431 1.023 4286804606
-0.10035144 0.21921431 1.023 4287200654
-0.098691434 0.21985716 1.026 4287528841
-0.096737146 0.21985716 1.026 4287593860
-0.094782867 0.21985716 1.026 4287659146
-0.092828579 0.21985716 1.026 4287790737
-0.091228575 0.2207143 1.0300001 4287854713
-0.089266673 0.2207143 1.0300001 4285947233
-0.087559052 0.22135715 1.033 4283977289
-0.085591435 0.22135715 1.033 4284170289
-0.083866671 0.22200002 1.036 4284303677
-0.082130484 0.22264287 1.039 4283910472
-0.080151431 0.22264287 1.039 4283517765
-0.078172386 0.22264287 1.039 4284041538
-0.076413341 0.22328573 1.0420001 4284500043
-0.074642859 0.22392859 1.0450001 4285023060
-0.072860956 0.22457144 1.0480001 4285553248
-0.070864767 0.22457144 1.0480001 4286150252
-0.068868577 0.22457144 1.0480001 4286739037
-0.067127623 0.22542858 1.052 4286471758
-0.065123811 0.22542858 1.052 4286145625
-0.063120008 0.22542858 1.052 4286148197
-0.061116196 0.22542858 1.052 4286075958
-0.059112385 0.22542858 1.052 4283965959
-0.15864477 0.2293781 1.0610001 4281997316
-0.15618096 0.22872955 1.0580001 4282591495
-0.15416573 0.22872955 1.0580001 4283118869
-0.15171906 0.22808097 1.0550001 4283249955
-0.14928383 0.2274324 1.052 4283447851
-0.14672001 0.22656764 1.0480001 4283643954
-0.14430954 0.22591907 1.0450001 4283905843
-0.14150192 0.22462192 1.039 4284037427
-0.13952287 0.22462192 1.039 4284234552
-0.13714668 0.22397335 1.036 4284431677
-0.13478191 0.22332478 1.033 4284563260
-0.13281429 0.22332478 1.033 4284302394
-0.12996002 0.22181144 1.026 4284107060
-0.12763144 0.22116287 1.023 4284304430
-0.12568286 0.22116287 1.023 4284567349
-0.12337144 0.2205143 1.0200001 4284500795
-0.12107144 0.21986572 1.0170001 4284435542
-0.11913429 0.21986572 1.0170001 4285949808
-0.11719715 0.21986572 1.0170001 4287459438
-0.11492001 0.21921715 1.0140001 4287590508
-0.11298858 0.21921715 1.0140001 4287720300
-0.1117143 0.2205143 1.0200001 4287327340
-0.10977144 0.2205143 1.0200001 4286934375
-0.10782858 0.2205143 1.0200001 4286803553
-0.10619715 0.22116287 1.023 4286606956
-0.10424858 0.22116287 1.023 4286673014
-0.1023 0.22116287 1.023 4286740346
-0.10035144 0.22116287 1.023 4287069822
-0.098691434 0.22181144 1.026 4287399807
-0.096737146 0.22181144 1.026 4287594111
-0.094782867 0.22181144 1.026 4287789453
-0.092828579 0.22181144 1.026 4287790746
-0.090874292 0.22181144 1.026 4287857531
-0.089266673 0.2226762 1.0300001 4286014043
-0.087304771 0.2226762 1.0300001 4284170296
-0.085591435 0.22332478 1.033 4284301332
-0.083623812 0.22332478 1.033 4284432688
-0.08189334 0.22397335 1.036 4284238156
-0.080151431 0.22462192 1.039 4283977280
-0.078172386 0.22462192 1.039 4284304691
-0.076413341 0.22527049 1.0420001 4284631875
-0.074642859 0.22591907 1.0450001 4285090642
-0.072860956 0.22656764 1.0480001 4285616742
-0.070864767 0.22656764 1.0480001 4286148218
-0.068868577 0.22656764 1.0480001 4286675036
-0.066872388 0.22656764 1.0480001 4286475069
-0.065123811 0.2274324 1.052 4286342996
-0.063120008 0.2274324 1.052 4286278506
-0.061116196 0.2274324 1.052 4286210359
-0.059112385 0.2274324 1.052 4284431619
-0.057108574 0.2274324 1.052 4282659864
-0.15909335 0.23205335 1.064 4282000134
-0.15662383 0.23139906 1.0610001 4282594568
-0.15416573 0.23074478 1.0580001 4283184150
-0.15171906 0.23009048 1.0550001 4283315237
-0.14970954 0.23009048 1.0550001 4283446570
-0.14728001 0.2294362 1.052 4283643184
-0.14472382 0.22856383 1.0480001 4283840048
-0.14191048 0.22725525 1.0420001 4284102193
-0.13952287 0.22660096 1.039 4284300093
-0.13714668 0.22594668 1.036 4284497224
-0.13478191 0.2252924 1.033 4284628797
-0.13281429 0.2252924 1.033 4284235825
-0.12996002 0.22376573 1.026 4283778610
-0.12800573 0.22376573 1.026 4284172851
-0.12568286 0.22311145 1.023 4284500277
-0.12337144 0.22245716 1.0200001 4284434230
-0.12142858 0.22245716 1.0200001 4284371023
-0.11948572 0.22245716 1.0200001 4285886568
-0.11719715 0.22180288 1.0170001 4287328883
-0.11492001 0.22114858 1.0140001 4287787390
-0.11298858 0.22114858 1.0140001 4288182134
-0.1117143 0.22245716 1.0200001 4287788143
-0.10977144 0.22245716 1.0200001 4287394667
-0.10782858 0.22245716 1.0200001 4287068007
-0.10619715 0.22311145 1.023 4286673005
-0.10424858 0.22311145 1.023 4286672756
-0.1023 0.22311145 1.023 4286674293
-0.10035144 0.22311145 1.023 4287003767
-0.098691434 0.22376573 1.026 4287266423
-0.096737146 0.22376573 1.026 4287593079
-0.094782867 0.22376573 1.026 4287855743
-0.092828579 0.22376573 1.026 4287856007
-0.091228575 0.2246381 1.0300001 4287855216
-0.089266673 0.2246381 1.0300001 4286081113
-0.087559052 0.2252924 1.033 4284305225
-0.085591435 0.2252924 1.033 4284432440
-0.083866671 0.22594668 1.036 4284565062
-0.08189334 0.22594668 1.036 4284501332
-0.080151431 0.22660096 1.039 4284436302
-0.078172386 0.22660096 1.039 4284633928
-0.076413341 0.22725525 1.0420001 4284763212
-0.074642859 0.22790954 1.0450001 4285222224
-0.072860956 0.22856383 1.0480001 4285618531
-0.070864767 0.22856383 1.0480001 4286150263
-0.068868577 0.22856383 1.0480001 4286609252
-0.066872388 0.22856383 1.0480001 4286541392
-0.065123811 0.2294362 1.052 4286475874
-0.063120008 0.2294362 1.052 4286412148
-0.061116196 0.2294362 1.052 4286276421
-0.059112385 0.2294362 1.052 4284890646
-0.057108574 0.2294362 1.052 4283513377
-0.16172573 0.23496002 1.0680001 4281803272
-0.15969144 0.23496002 1.0680001 4282131976
-0.15706667 0.23408002 1.064 4282855176
-0.15460287 0.23342001 1.0610001 4283511064
-0.15215048 0.23276001 1.0580001 4283446055
-0.15013525 0.23276001 1.0580001 4283380266
-0.14728001 0.23144002 1.052 4283577645
-0.14472382 0.23056002 1.0480001 4283774254
-0.14150192 0.22858001 1.039 4283971887
-0.13952287 0.22858001 1.039 4284234817
-0.13714668 0.22792001 1.036 4284301395
-0.13517334 0.22792001 1.036 4284301630
-0.13281429 0.22726001 1.033 4283382824
-0.13046667 0.22660002 1.0300001 4282467632
-0.12800573 0.22572002 1.026 4283581752
-0.12605144 0.22572002 1.026 4284695349
-0.1237343 0.22506002 1.023 4284564017
-0.12142858 0.22440001 1.0200001 4284431689
-0.11948572 0.22440001 1.0200001 4285883232
-0.11754286 0.22440001 1.0200001 4287330424
-0.11526 0.22374001 1.0170001 4287593872
-0.11332286 0.22374001 1.0170001 4287925633
-0.1117143 0.22440001 1.0200001 4287001969
-0.10977144 0.22440001 1.0200001 4286149999
-0.10814572 0.22506002 1.023 4286081901
-0.10619715 0.22506002 1.023 4286082415
-0.10424858 0.22506002 1.023 4285950321
-0.1023 0.22506002 1.023 4285821296
-0.10064572 0.22572002 1.026 4286280303
-0.098691434 0.22572002 1.026 4286807151
-0.096737146 0.22572002 1.026 4287134318
-0.094782867 0.22572002 1.026 4287529073
-0.092828579 0.22572002 1.026 4287725172
-0.091228575 0.22660002 1.0300001 4287988070
-0.089266673 0.22660002 1.0300001 4286278743
-0.087559052 0.22726001 1.033 4284568666
-0.085591435 0.22726001 1.033 4284433756
-0.083866671 0.22792001 1.036 4284303708
-0.08189334 0.22792001 1.036 4284106587
-0.079920009 0.22792001 1.036 4283912028
-0.078172386 0.22858001 1.039 4284238428
-0.07619334 0.22858001 1.039 4284499541
-0.074428573 0.22924002 1.0420001 4285026125
-0.072860956 0.23056002 1.0480001 4285550689
-0.070864767 0.23056002 1.0480001 4286214004
-0.068868577 0.23056002 1.0480001 4286939244
-0.066872388 0.23056002 1.0480001 4286936419
-0.065123811 0.23144002 1.052 4286934896
-0.063120008 0.23144002 1.052 4286739837
-0.061116196 0.23144002 1.052 4286543699
-0.059112385 0.23144002 1.052 4285156137
-0.057108574 0.23144002 1.052 4283709227
-0.16422001 0.23766002 1.0710001 4281737220
-0.16218001 0.23766002 1.0710001 4282000901
-0.15969144 0.2369943 1.0680001 4282263301
-0.15706667 0.23610668 1.064 4283052037
-0.15460287 0.23544097 1.0610001 4283839502
-0.15215048 0.23477526 1.0580001 4283577880
-0.15013525 0.23477526 1.0580001 4283315490
-0.14770001 0.23410954 1.0550001 4283512877
-0.14472382 0.23255621 1.0480001 4283643951
-0.14191048 0.23122478 1.0420001 4283907122
-0.13952287 0.23055907 1.039 4284169527
-0.13714668 0.22989334 1.036 4284106556
-0.13517334 0.22989334 1.036 4283972904
-0.13281429 0.22922763 1.033 4282525973
-0.13084668 0.22922763 1.033 4281087517
-0.12850477 0.22856192 1.0300001 4282990886
-0.12605144 0.22767431 1.026 4284892202
-0.1237343 0.22700858 1.023 4284694318
-0.12178572 0.22700858 1.023 4284434763
-0.11948572 0.22634287 1.0200001 4285884520
-0.11754286 0.22634287 1.0200001 4287329651
-0.11526 0.22567716 1.0170001 4287462526
-0.11332286 0.22567716 1.0170001 4287592570
-0.1117143 0.22634287 1.0200001 4286209142
-0.10977144 0.22634287 1.0200001 4284833650
-0.10782858 0.22634287 1.0200001 4285158253
-0.10619715 0.22700858 1.023 4285488230
-0.10424858 0.22700858 1.023 4285224799
-0.1023 0.22700858 1.023 4284965223
-0.10035144 0.22700858 1.023 4285619568
-0.098691434 0.22767431 1.026 4286278254
-0.096737146 0.22767431 1.026 4286738796
-0.094782867 0.22767431 1.026 4287133293
-0.092828579 0.22767431 1.026 4287592813
-0.090874292 0.22767431 1.026 4288052325
-0.089266673 0.22856192 1.0300001 4286411869
-0.087559052 0.22922763 1.033 4284765012
-0.085840009 0.22989334 1.036 4284364874
-0.083866671 0.22989334 1.036 4283972434
-0.08189334 0.22989334 1.036 4283708763
-0.079920009 0.22989334 1.036 4283385696
-0.078172386 0.23055907 1.039 4283842918
-0.07619334 0.23055907 1.039 4284240486
-0.074428573 0.23122478 1.0420001 4284831589
-0.072652385 0.23189048 1.0450001 4285425009
-0.070864767 0.23255621 1.0480001 4286346620
-0.068868577 0.23255621 1.0480001 4287265136
-0.066872388 0.23255621 1.0480001 4287330148
-0.065123811 0.23344383 1.052 4287395437
-0.063120008 0.23344383 1.052 4287133814
-0.061116196 0.23344383 1.052 4286802002
-0.059112385 0.23344383 1.052 4285350190
-0.16422001 0.23970002 1.0710001 4281603329
-0.16218001 0.23970002 1.0710001 4281867265
-0.16014001 0.23970002 1.0710001 4282129921
-0.15765715 0.23902859 1.0680001 4282657025
-0.15460287 0.23746192 1.0610001 4283251205
-0.15215048 0.23679049 1.0580001 4283051273
-0.15013525 0.23679049 1.0580001 4282855963
-0.14728001 0.23544763 1.052 4283053100
-0.14430954 0.23388097 1.0450001 4283315504
-0.14191048 0.23320954 1.0420001 4283512372
-0.13952287 0.2325381 1.039 4283774253
-0.13714668 0.23186669 1.036 4283776805
-0.13517334 0.23186669 1.036 4283778067
-0.13281429 0.23119526 1.033 4282986753
-0.13084668 0.23119526 1.033 4282132234
-0.12850477 0.23052382 1.0300001 4283645715
-0.12605144 0.22962859 1.026 4285156383
-0.1237343 0.22895716 1.023 4284630315
-0.12178572 0.22895716 1.023 4284170574
-0.11948572 0.22828573 1.0200001 4285619824
-0.11754286 0.22828573 1.0200001 4287067758
-0.11526 0.2276143 1.0170001 4287265643
-0.11332286 0.2276143 1.0170001 4287462003
-0.1117143 0.22828573 1.0200001 4286276731
-0.10977144 0.22828573 1.0200001 4285159284
-0.10782858 0.22828573 1.0200001 4285422189
-0.10619715 0.22895716 1.023 4285749853
-0.10424858 0.22895716 1.023 4285619276
-0.1023 0.22895716 1.023 4285488990
-0.10035144 0.22895716 1.023 4285947760
-0.098691434 0.22962859 1.026 4286406253
-0.096737146 0.22962859 1.026 4286803050
-0.094782867 0.22962859 1.026 4287262568
-0.092828579 0.22962859 1.026 4287723878
-0.091228575 0.23052382 1.0300001 4288250213
-0.089526676 0.23119526 1.033 4286605923
-0.087559052 0.23119526 1.033 4285024846
-0.085840009 0.23186669 1.036 4285219896
-0.083866671 0.23186669 1.036 4285412425
-0.082130484 0.2325381 1.039 4285418842
-0.080151431 0.2325381 1.039 4285420901
-0.078172386 0.2325381 1.039 4285751664
-0.07619334 0.2325381 1.039 4286081911
-0.074428573 0.23320954 1.0420001 4286017149
-0.072652385 0.23388097 1.0450001 4286019969
-0.070864767 0.2345524 1.0480001 4286150020
-0.068868577 0.2345524 1.0480001 4286347637
-0.066872388 0.2345524 1.0480001 4286149221
-0.065123811 0.23544763 1.052 4286019690
-0.063120008 0.23544763 1.052 4286543215
-0.061116196 0.23544763 1.052 4287000657
-0.059112385 0.23544763 1.052 4285417010
-0.16468 0.24241716 1.074 4281472770
-0.1626343 0.24241716 1.074 4281734403
-0.16014001 0.24174002 1.0710001 4281997829
-0.15765715 0.24106288 1.0680001 4282326280
-0.15504001 0.24016002 1.064 4282589450
-0.15258192 0.23948288 1.0610001 4282454028
-0.15013525 0.23880573 1.0580001 4282328343
-0.14728001 0.23745145 1.052 4282658594
-0.14472382 0.23654859 1.0480001 4282921257
-0.14231905 0.23587145 1.0450001 4283183920
-0.13952287 0.23451716 1.039 4283381037
-0.13714668 0.23384002 1.036 4283514154
-0.13517334 0.23384002 1.036 4283578649
-0.13281429 0.23316287 1.033 4283379976
-0.13046667 0.23248573 1.0300001 4283185428
-0.12850477 0.23248573 1.0300001 4284303392
-0.12605144 0.23158287 1.026 4285417773
-0.1237343 0.23090573 1.023 4284631098
-0.12178572 0.23090573 1.023 4283845964
-0.11948572 0.23022859 1.0200001 4285355870
-0.11754286 0.23022859 1.0200001 4286803813
-0.11526 0.22955145 1.0170001 4287070317
-0.11332286 0.22955145 1.0170001 4287330419
-0.1117143 0.23022859 1.0200001 4286407289
-0.10977144 0.23022859 1.0200001 4285423732
-0.10782858 0.23022859 1.0200001 4285752430
-0.10588572 0.23022859 1.0200001 4286013795
-0.10424858 0.23090573 1.023 4286013784
-0.1023 0.23090573 1.023 4285948258
-0.10035144 0.23090573 1.023 4286276203
-0.098691434 0.23158287 1.026 4286540139
-0.096737146 0.23158287 1.026 4286935659
-0.094782867 0.23158287 1.026 4287329648
-0.092828579 0.23158287 1.026 4287854966
-0.091228575 0.23248573 1.0300001 4288378739
-0.089526676 0.23316287 1.033 4286801777
-0.08781334 0.23384002 1.036 4285226339
-0.085840009 0.23384002 1.036 4286012245
-0.083866671 0.23384002 1.036 4286799971
-0.082130484 0.23451716 1.039 4287132786
-0.080151431 0.23451716 1.039 4287394416
-0.078172386 0.23451716 1.039 4287660397
-0.076413341 0.2351943 1.0420001 4287920752
-0.074428573 0.2351943 1.0420001 4287266420
-0.072652385 0.23587145 1.0450001 4286543451
-0.070864767 0.23654859 1.0480001 4285951299
-0.068868577 0.23654859 1.0480001 4285360699
-0.067127623 0.23745145 1.052 4285029939
-0.065123811 0.23745145 1.052 4284638546
-0.063120008 0.23745145 1.052 4285953392
-0.061116196 0.23745145 1.052 4287194194
-0.16998573 0.24924287 1.095 4281604097
-0.16468 0.24446288 1.074 4281670403
-0.1626343 0.24446288 1.074 4281800708
-0.16014001 0.24378002 1.0710001 4281932042
-0.15810001 0.24378002 1.0710001 4282260751
-0.15562287 0.24309716 1.0680001 4282588687
-0.15301335 0.24218668 1.064 4282326287
-0.15013525 0.24082097 1.0580001 4282130708
-0.14728001 0.23945525 1.052 4282394904
-0.14472382 0.23854478 1.0480001 4282657826
-0.14231905 0.23786192 1.0450001 4282854956
-0.13952287 0.23649621 1.039 4283051822
-0.13754381 0.23649621 1.039 4283249199
-0.13517334 0.23581335 1.036 4283445535
-0.13281429 0.23513049 1.033 4283382286
-0.13084668 0.23513049 1.033 4283385118
-0.12850477 0.23444763 1.0300001 4284237613
-0.12605144 0.23353715 1.026 4285024059
-0.1237343 0.23285431 1.023 4284632137
-0.12178572 0.23285431 1.023 4284174923
-0.11948572 0.23217145 1.0200001 4285487948
-0.11754286 0.23217145 1.0200001 4286868829
-0.11526 0.23148859 1.0170001 4287266158
-0.11332286 0.23148859 1.0170001 4287660915
-0.11138572 0.23148859 1.0170001 4286606455
-0.10977144 0.23217145 1.0200001 4285489779
-0.10782858 0.23217145 1.0200001 4285751407
-0.10588572 0.23217145 1.0200001 4286079850
-0.10424858 0.23285431 1.023 4286144868
-0.1023 0.23285431 1.023 4286210405
-0.10035144 0.23285431 1.023 4286540390
-0.098691434 0.23353715 1.026 4286870121
-0.096737146 0.23353715 1.026 4287133548
-0.094782867 0.23353715 1.026 4287396473
-0.093190484 0.23444763 1.0300001 4287658629
-0.091228575 0.23444763 1.0300001 4287920770
-0.089526676 0.23513049 1.033 4287132286
-0.087559052 0.23513049 1.033 4286409080
-0.085840009 0.23581335 1.036 4286672241
-0.083866671 0.23581335 1.036 4286937982
-0.08189334 0.23581335 1.036 4287067786
-0.079920009 0.23581335 1.036 4287135354
-0.078172386 0.23649621 1.039 4286542186
-0.07619334 0.23649621 1.039 4286020714
-0.074428573 0.23717906 1.0420001 4286150506
-0.072652385 0.23786192 1.0450001 4286280758
-0.07066191 0.23786192 1.0450001 4285359361
-0.068868577 0.23854478 1.0480001 4284506625
-0.066872388 0.23854478 1.0480001 4284503553
-0.065123811 0.23945525 1.052 4284435001
-0.063120008 0.23945525 1.052 4285885297
-0.06129048 0.24013811 1.0550001 4287263572
-0.16998573 0.25132859 1.095 4282063105
-0.16636668 0.24903335 1.085 4281867011
-0.1626343 0.24650858 1.074 4281865988
-0.16058858 0.24650858 1.074 4281866759
-0.15810001 0.24582002 1.0710001 4282195722
-0.15562287 0.24513145 1.0680001 4282524171
-0.15301335 0.24421334 1.064 4282197004
-0.15013525 0.24283621 1.0580001 4281869074
-0.14728001 0.24145906 1.052 4282132247
-0.14472382 0.24054097 1.0480001 4282394402
-0.14231905 0.2398524 1.0450001 4282525997
-0.13992572 0.23916383 1.0420001 4282657320
-0.13754381 0.23847525 1.039 4282984996
-0.13517334 0.23778668 1.036 4283248919
-0.13281429 0.23709811 1.033 4283449099
-0.13084668 0.23709811 1.033 4283581213
-0.12850477 0.23640954 1.0300001 4284107056
-0.12605144 0.23549144 1.026 4284631864
-0.1237343 0.23480287 1.023 4284567360
-0.12178572 0.23480287 1.023 4284502593
-0.11948572 0.2341143 1.0200001 4285683266
-0.11754286 0.2341143 1.0200001 4286868829
-0.11526 0.23342574 1.0170001 4287464311
-0.11332286 0.23342574 1.0170001 4287987064
-0.11138572 0.23342574 1.0170001 4286802041
-0.10977144 0.2341143 1.0200001 4285554040
-0.10782858 0.2341143 1.0200001 4285814646
-0.10588572 0.2341143 1.0200001 4286079343
-0.10424858 0.23480287 1.023 4286275687
-0.1023 0.23480287 1.023 4286408551
-0.10035144 0.23480287 1.023 4286804328
-0.098691434 0.23549144 1.026 4287133548
-0.096737146 0.23549144 1.026 4287331696
-0.094782867 0.23549144 1.026 4287462007
-0.093190484 0.23640954 1.0300001 4287461758
-0.091228575 0.23640954 1.0300001 4287396219
-0.089526676 0.23709811 1.033 4287462521
-0.087559052 0.23709811 1.033 4287526262
-0.085591435 0.23709811 1.033 4287329907
-0.083866671 0.23778668 1.036 4287067261
-0.08189334 0.23778668 1.036 4286999687
-0.079920009 0.23778668 1.036 4286865503
-0.078172386 0.23847525 1.039 4285483319
-0.07619334 0.23847525 1.039 4284046932
-0.074428573 0.23916383 1.0420001 4285034354
-0.072652385 0.2398524 1.0450001 4285949498
-0.070864767 0.24054097 1.0480001 4284829697
-0.068868577 0.24054097 1.0480001 4283651329
-0.067127623 0.24145906 1.052 4283977473
-0.065123811 0.24145906 1.052 4284242232
-0.063120008 0.24145906 1.052 4285823600
-0.061116196 0.24145906 1.052 4287326798
-0.16998573 0.2534143 1.095 4281801729
-0.16636668 0.2511 1.085 4281737731
-0.16324002 0.24948001 1.0780001 4281801220
-0.16058858 0.2485543 1.074 4281931780
-0.15854287 0.2485543 1.074 4282392324
-0.15562287 0.24716572 1.0680001 4282918663
-0.15358858 0.24716572 1.0680001 4282327305
-0.15013525 0.24485144 1.0580001 4281802768
-0.14672001 0.24253716 1.0480001 4281933590
-0.14472382 0.24253716 1.0480001 4282064674
-0.14231905 0.24184287 1.0450001 4282196782
-0.13992572 0.24114859 1.0420001 4282393891
-0.13794096 0.24114859 1.0420001 4282591000
-0.13517334 0.23976001 1.036 4282853392
-0.1332 0.23976001 1.036 4283053063
-0.13084668 0.23906574 1.033 4283252253
-0.12850477 0.23837145 1.0300001 4283712306
-0.12605144 0.23744573 1.026 4284239156
-0.1237343 0.23675144 1.023 4284239926
-0.12178572 0.23675144 1.023 4284240183
-0.11948572 0.23605716 1.0200001 4285486904
-0.11754286 0.23605716 1.0200001 4286737500
-0.1156 0.23605716 1.0200001 4287135104
-0.11365715 0.23605716 1.0200001 4287595646
-0.1117143 0.23605716 1.0200001 4286868603
-0.10977144 0.23605716 1.0200001 4286141308
-0.10782858 0.23605716 1.0200001 4286341245
-0.10619715 0.23675144 1.023 4286540148
-0.10424858 0.23675144 1.023 4286672490
-0.10260001 0.23744573 1.026 4286802794
-0.10035144 0.23675144 1.023 4287132777
-0.098691434 0.23744573 1.026 4287461999
-0.096737146 0.23744573 1.026 4287396468
-0.094782867 0.23744573 1.026 4287265141
-0.092828579 0.23744573 1.026 4287198070
-0.090874292 0.23744573 1.026 4287133301
-0.089526676 0.23906574 1.033 4287265140
-0.087559052 0.23906574 1.033 4287330676
-0.085840009 0.23976001 1.036 4287263860
-0.083866671 0.23976001 1.036 4287198332
-0.082130484 0.2404543 1.039 4285816451
-0.080151431 0.2404543 1.039 4284501315
-0.078172386 0.2404543 1.039 4284173059
-0.076413341 0.24114859 1.0420001 4283843391
-0.074428573 0.24114859 1.0420001 4284964218
-0.072652385 0.24184287 1.0450001 4286080318
-0.070864767 0.24253716 1.0480001 4285159169
-0.068868577 0.24253716 1.0480001 4284305921
-0.067127623 0.24346288 1.052 4284436993
-0.065123811 0.24346288 1.052 4284502072
-0.063120008 0.24346288 1.052 4285951598
-0.061116196 0.24346288 1.052 4287330888
-0.16998573 0.25550002 1.095 4281605379
-0.16682668 0.25386667 1.0880001 4281539587
-0.16324002 0.25153336 1.0780001 4281800452
-0.16058858 0.25060001 1.074 4281997582
-0.15854287 0.25060001 1.074 4282654489
-0.15562287 0.24920002 1.0680001 4283244048
-0.15258192 0.24756669 1.0610001 4282521607
-0.15013525 0.24686669 1.0580001 4281735179
-0.14728001 0.24546668 1.052 4281734672
-0.14472382 0.24453335 1.0480001 4281670426
-0.14231905 0.24383335 1.0450001 4281868068
-0.13992572 0.24313335 1.0420001 4282065949
-0.13754381 0.24243335 1.039 4282263061
-0.13517334 0.24173334 1.036 4282394387
-0.1332 0.24173334 1.036 4282657041
-0.13084668 0.24103335 1.033 4282921251
-0.12800573 0.23940001 1.026 4283381301
-0.12568286 0.23870002 1.023 4283779381
-0.1237343 0.23870002 1.023 4283912757
-0.12178572 0.23870002 1.023 4283977531
-0.11948572 0.23800002 1.0200001 4285286977
-0.11754286 0.23800002 1.0200001 4286539617
-0.1156 0.23800002 1.0200001 4286873730
-0.11365715 0.23800002 1.0200001 4287200383
-0.1117143 0.23800002 1.0200001 4286934909
-0.10977144 0.23800002 1.0200001 4286670717
-0.10782858 0.23800002 1.0200001 4286868348
-0.10588572 0.23800002 1.0200001 4287002227
-0.10424858 0.23870002 1.023 4287071082
-0.10260001 0.23940001 1.026 4287133550
-0.10064572 0.23940001 1.026 4287462003
-0.098691434 0.23940001 1.026 4287789174
-0.096737146 0.23940001 1.026 4287461497
-0.094782867 0.23940001 1.026 4287066994
-0.093190484 0.24033335 1.0300001 4286997611
-0.091494292 0.24103335 1.033 4286869358
-0.089526676 0.24103335 1.033 4287002481
-0.08781334 0.24173334 1.036 4287133560
-0.085840009 0.24173334 1.036 4287196799
-0.083866671 0.24173334 1.036 4287260528
-0.082130484 0.24243335 1.039 4284697442
-0.080151431 0.24243335 1.039 4282140231
-0.078172386 0.24243335 1.039 4282929453
-0.076413341 0.24313335 1.0420001 4283650117
-0.074428573 0.24313335 1.0420001 4284898909
-0.072652385 0.24383335 1.0450001 4286144835
-0.07066191 0.24383335 1.0450001 4285552169
-0.068868577 0.24453335 1.0480001 4284962350
-0.067127623 0.24546668 1.052 4284897331
-0.065123811 0.24546668 1.052 4284768596
-0.063120008 0.24546668 1.052 4286084469
-0.06129048 0.24616668 1.0550001 4287327561
-0.16936478 0.25664479 1.0910001 4281408773
-0.16682668 0.25593907 1.0880001 4281539332
-0.16430001 0.25523335 1.085 4281734659
-0.16118668 0.25358668 1.0780001 4281931032
-0.15854287 0.25264573 1.074 4282456365
-0.15562287 0.25123429 1.0680001 4282915353
-0.15258192 0.24958764 1.0610001 4282324740
-0.15013525 0.24888192 1.0580001 4281733383
-0.14728001 0.2474705 1.052 4281472266
-0.14472382 0.24652953 1.0480001 4281210898
-0.14231905 0.24582383 1.0450001 4281343770
-0.14032859 0.24582383 1.0450001 4281542166
-0.13794096 0.24511811 1.0420001 4281607186
-0.13556477 0.24441239 1.039 4281607446
-0.1332 0.24370669 1.036 4281607450
-0.13084668 0.24300097 1.033 4281542441
-0.12800573 0.2413543 1.026 4282529592
-0.12568286 0.24064858 1.023 4283518262
-0.1237343 0.24064858 1.023 4283846708
-0.12142858 0.23994288 1.0200001 4284174143
-0.11948572 0.23994288 1.0200001 4285092681
-0.11754286 0.23994288 1.0200001 4285949286
-0.11526 0.23923716 1.0170001 4286609539
-0.11365715 0.23994288 1.0200001 4287200385
-0.1117143 0.23994288 1.0200001 4286935935
-0.11009429 0.24064858 1.023 4286738301
-0.10782858 0.23994288 1.0200001 4286739067
-0.10619715 0.24064858 1.023 4286808434
-0.1045543 0.2413543 1.026 4286805097
-0.10260001 0.2413543 1.026 4286870643
-0.10064572 0.2413543 1.026 4287198332
-0.098691434 0.2413543 1.026 4287525501
-0.096737146 0.2413543 1.026 4287198845
-0.095152386 0.24229525 1.0300001 4286870895
-0.093190484 0.24229525 1.0300001 4286736224
-0.091494292 0.24300097 1.033 4286605927
-0.089786671 0.24370669 1.036 4286740077
-0.08781334 0.24370669 1.036 4286938236
-0.085840009 0.24370669 1.036 4287066762
-0.08410953 0.24441239 1.039 4287262053
-0.082130484 0.24441239 1.039 4284435776
-0.080151431 0.24441239 1.039 4281675851
-0.078172386 0.24441239 1.039 4282597974
-0.076413341 0.24511811 1.0420001 4283584075
-0.074428573 0.24511811 1.0420001 4285030464
-0.072652385 0.24582383 1.0450001 4286540873
-0.07066191 0.24582383 1.0450001 4286012753
-0.068868577 0.24652953 1.0480001 4285421147
-0.067127623 0.2474705 1.052 4285357668
-0.065123811 0.2474705 1.052 4285294448
-0.063300006 0.2481762 1.0550001 4286411644
-0.06129048 0.2481762 1.0550001 4287463755
-0.059449527 0.24888192 1.0580001 4285420057
-0.057597145 0.24958764 1.0610001 4283445791
-0.16936478 0.25872287 1.0910001 4281212419
-0.16682668 0.25801146 1.0880001 4281473539
-0.16430001 0.25730002 1.085 4281667842
-0.16223334 0.25730002 1.085 4281865999
-0.15854287 0.25469145 1.074 4282258971
-0.15562287 0.2532686 1.0680001 4282588175
-0.15258192 0.25160858 1.0610001 4282128899
-0.15013525 0.25089717 1.0580001 4281669892
-0.14728001 0.2494743 1.052 4281210118
-0.14472382 0.24852572 1.0480001 4280686860
-0.14272763 0.24852572 1.0480001 4280884499
-0.14032859 0.2478143 1.0450001 4281015824
-0.13794096 0.24710287 1.0420001 4280950542
-0.13556477 0.24639145 1.039 4280819731
-0.1332 0.24568002 1.036 4280491288
-0.13084668 0.24496859 1.033 4280166438
-0.12800573 0.24330859 1.026 4281742133
-0.12568286 0.24259716 1.023 4283253301
-0.1237343 0.24259716 1.023 4283847222
-0.12142858 0.24188574 1.0200001 4284370755
-0.11948572 0.24188574 1.0200001 4284894288
-0.11754286 0.24188574 1.0200001 4285359723
-0.1156 0.24188574 1.0200001 4286283654
-0.11365715 0.24188574 1.0200001 4287199872
-0.11204287 0.24259716 1.023 4287001467
-0.11009429 0.24259716 1.023 4286738039
-0.10814572 0.24259716 1.023 4286671731
-0.10619715 0.24259716 1.023 4286539878
-0.1045543 0.24330859 1.026 4286601306
-0.10260001 0.24330859 1.026 4286604909
-0.10064572 0.24330859 1.026 4286934657
-0.098691434 0.24330859 1.026 4287198343
-0.096737146 0.24330859 1.026 4286937230
-0.095152386 0.24425715 1.0300001 4286673024
-0.093190484 0.24425715 1.0300001 4286470771
-0.091494292 0.24496859 1.033 4286277489
-0.089526676 0.24496859 1.033 4286544240
-0.08781334 0.24568002 1.036 4286740605
-0.085840009 0.24568002 1.036 4287000971
-0.08410953 0.24639145 1.039 4287195247
-0.082130484 0.24639145 1.039 4284173651
-0.080151431 0.24639145 1.039 4281156435
-0.078398101 0.24710287 1.0420001 4282333266
-0.076413341 0.24710287 1.0420001 4283454293
-0.074642859 0.2478143 1.0450001 4285229400
-0.072652385 0.2478143 1.0450001 4286933330
-0.07066191 0.2478143 1.0450001 4286405964
-0.068868577 0.24852572 1.0480001 4285882449
-0.067127623 0.2494743 1.052 4285883477
-0.065123811 0.2494743 1.052 4285818979
-0.063300006 0.25018573 1.0550001 4286737778
-0.06129048 0.25018573 1.0550001 4287589699
-0.059449527 0.25089717 1.0580001 4285485589
-0.057597145 0.25160858 1.0610001 4283382292
-0.16936478 0.26080096 1.0910001 4281540353
-0.16682668 0.26008382 1.0880001 4281474305
-0.16430001 0.25936669 1.085 4281670657
-0.16014001 0.25602001 1.0710001 4281868293
-0.15810001 0.25602001 1.0710001 4282392585
-0.15562287 0.25530288 1.0680001 4282983685
-0.15258192 0.25362954 1.0610001 4282393345
-0.15013525 0.2529124 1.0580001 4281868801
-0.14728001 0.25147811 1.052 4281146625
-0.1452762 0.25147811 1.052 4280425222
-0.14272763 0.25052193 1.0480001 4280752907
-0.14073144 0.25052193 1.0480001 4281079562
-0.1383381 0.24980478 1.0450001 4281081097
-0.1359562 0.24908763 1.0420001 4281015824
-0.13397144 0.24908763 1.0420001 4280885270
-0.13122667 0.24765335 1.036 4280822308
-0.12800573 0.24526288 1.026 4281937201
-0.12568286 0.24454573 1.023 4283053876
-0.1237343 0.24454573 1.023 4283844919
-0.12178572 0.24454573 1.023 4284698183
-0.11948572 0.24382859 1.0200001 4284961879
-0.11754286 0.24382859 1.0200001 4285294960
-0.1156 0.24382859 1.0200001 4286281096
-0.11365715 0.24382859 1.0200001 4287265407
-0.11204287 0.24454573 1.023 4287001206
-0.11009429 0.24454573 1.023 4286737520
-0.10814572 0.24454573 1.023 4286605162
-0.10619715 0.24454573 1.023 4286471002
-0.1045543 0.24526288 1.026 4286536778
-0.10260001 0.24526288 1.026 4286602344
-0.10064572 0.24526288 1.026 4287065733
-0.099076197 0.24621907 1.0300001 4287592082
-0.097114295 0.24621907 1.0300001 4287002526
-0.095152386 0.24621907 1.0300001 4286478482
-0.093190484 0.24621907 1.0300001 4285949573
-0.091494292 0.2469362 1.033 4285423740
-0.089526676 0.2469362 1.033 4285885555
-0.087559052 0.2469362 1.033 4286412927
-0.085840009 0.24765335 1.036 4286673803
-0.08410953 0.2483705 1.039 4286936441
-0.082130484 0.2483705 1.039 4285555558
-0.080151431 0.2483705 1.039 4284241754
-0.078398101 0.24908763 1.0420001 4284962894
-0.076413341 0.24908763 1.0420001 4285750111
-0.074642859 0.24980478 1.0450001 4286475119
-0.072652385 0.24980478 1.0450001 4287197531
-0.070864767 0.25052193 1.0480001 4286802759
-0.068868577 0.25052193 1.0480001 4286408519
-0.067127623 0.25147811 1.052 4286278214
-0.065123811 0.25147811 1.052 4286146903
-0.063300006 0.25219527 1.0550001 4285687911
-0.06129048 0.25219527 1.0550001 4285297468
-0.059449527 0.2529124 1.0580001 4284302865
-0.057434291 0.2529124 1.0580001 4283378697
-0.16014001 0.25806001 1.0710001 4281802767
-0.15810001 0.25806001 1.0710001 4282590748
-0.15562287 0.25733715 1.0680001 4283312399
-0.15258192 0.25565049 1.0610001 4282657537
-0.15013525 0.25492764 1.0580001 4282000132
-0.14770001 0.25420478 1.0550001 4281081864
-0.1452762 0.25348192 1.052 4280163086
-0.14327239 0.25348192 1.052 4280687636
-0.14073144 0.25251812 1.0480001 4281146383
-0.1383381 0.25179526 1.0450001 4281212938
-0.1359562 0.25107241 1.0420001 4281212428
-0.13397144 0.25107241 1.0420001 4281342222
-0.13122667 0.24962668 1.036 4281408799
-0.12850477 0.24818097 1.0300001 4282130225
-0.12605144 0.24721716 1.026 4282858551
-0.1237343 0.24649431 1.023 4283911485
-0.12178572 0.24649431 1.023 4284959311
-0.11983715 0.24649431 1.023 4285090913
-0.11788858 0.24649431 1.023 4285227114
-0.1156 0.24577144 1.0200001 4286279795
-0.11365715 0.24577144 1.0200001 4287264366
-0.11204287 0.24649431 1.023 4287000682
-0.11009429 0.24649431 1.023 4286672235
-0.10814572 0.24649431 1.023 4286540139
-0.10619715 0.24649431 1.023 4286341730
-0.1045543 0.24721716 1.026 4286472281
-0.10260001 0.24721716 1.026 4286538857
-0.10064572 0.24721716 1.026 4287264634
-0.099076197 0.24818097 1.0300001 4287920005
-0.097114295 0.24818097 1.0300001 4287132817
-0.095152386 0.24818097 1.0300001 4286279048
-0.093190484 0.24818097 1.0300001 4285424767
-0.091494292 0.24890383 1.033 4284571767
-0.089526676 0.24890383 1.033 4285292655
-0.08781334 0.24962668 1.036 4286016120
-0.085840009 0.24962668 1.036 4286345090
-0.08410953 0.25034955 1.039 4286607732
-0.082130484 0.25034955 1.039 4286936166
-0.080151431 0.25034955 1.039 4287262307
-0.078398101 0.25107241 1.0420001 4287657313
-0.076413341 0.25107241 1.0420001 4287983729
-0.074642859 0.25179526 1.0450001 4287722881
-0.072652385 0.25179526 1.0450001 4287395178
-0.070864767 0.25251812 1.0480001 4287198803
-0.068868577 0.25251812 1.0480001 4286935356
-0.067127623 0.25348192 1.052 4286674213
-0.065123811 0.25348192 1.052 4286406965
-0.063300006 0.25420478 1.0550001 4284700485
-0.061116196 0.25348192 1.052 4282926641
-0.059280958 0.25420478 1.0550001 4283180573
-0.057271432 0.25420478 1.0550001 4283379731
-0.15810001 0.26010001 1.0710001 4282196527
-0.15562287 0.25937146 1.0680001 4282658328
-0.15258192 0.25767145 1.0610001 4282198273
-0.15013525 0.25694287 1.0580001 4281736968
-0.14770001 0.25621429 1.0550001 4281211662
-0.1452762 0.25548574 1.052 4280685334
-0.14327239 0.25548574 1.052 4280949021
-0.14073144 0.25451431 1.0480001 4281211668
-0.1383381 0.25378573 1.0450001 4281212426
-0.1359562 0.25305715 1.0420001 4281278984
-0.13397144 0.25305715 1.0420001 4281211397
-0.13160667 0.25232857 1.039 4281143579
-0.12887906 0.25087145 1.033 4282330929
-0.12605144 0.24917145 1.026 4283518010
-0.12409715 0.24917145 1.026 4284106819
-0.12178572 0.24844287 1.023 4284760407
-0.11983715 0.24844287 1.023 4285089386
-0.11788858 0.24844287 1.023 4285356644
-0.11594 0.24844287 1.023 4286412381
-0.11365715 0.2477143 1.0200001 4287397470
-0.11204287 0.24844287 1.023 4287002206
-0.11009429 0.24844287 1.023 4286541669
-0.10814572 0.24844287 1.023 4286015596
-0.10619715 0.24844287 1.023 4285555306
-0.1045543 0.24917145 1.026 4285881192
-0.10260001 0.24917145 1.026 4286274923
-0.10064572 0.24917145 1.026 4286804846
-0.098691434 0.24917145 1.026 4287265657
-0.097114295 0.25014287 1.0300001 4286737795
-0.095152386 0.25014287 1.0300001 4286145918
-0.093190484 0.25014287 1.0300001 4285686137
-0.091494292 0.25087145 1.033 4285225842
-0.089786671 0.25160003 1.036 4285619562
-0.08781334 0.25160003 1.036 4286013554
-0.085840009 0.25160003 1.036 4286277241
-0.08410953 0.25232857 1.039 4286540911
-0.082130484 0.25232857 1.039 4286870629
-0.080151431 0.25232857 1.039 4287264365
-0.078398101 0.25305715 1.0420001 4287330420
-0.076413341 0.25305715 1.0420001 4287396228
-0.074642859 0.25378573 1.0450001 4286935955
-0.072860956 0.25451431 1.0480001 4286412921
-0.070864767 0.25451431 1.0480001 4285491294
-0.068868577 0.25451431 1.0480001 4284641841
-0.067127623 0.25548574 1.052 4284373507
-0.065123811 0.25548574 1.052 4284108051
-0.063120008 0.25548574 1.052 4283121187
-0.061116196 0.25548574 1.052 4282066726
-0.059112385 0.25548574 1.052 4282658345
-0.057108574 0.25548574 1.052 4283315485
-0.15810001 0.26214001 1.0710001 4281867041
-0.15562287 0.26140574 1.0680001 4282000913
-0.15258192 0.2596924 1.0610001 4281740546
-0.15013525 0.2589581 1.0580001 4281409799
-0.14770001 0.25822383 1.0550001 4281342221
-0.14569049 0.25822383 1.0550001 4281210646
-0.14327239 0.25748953 1.052 4281210910
-0.14073144 0.2565105 1.0480001 4281211424
-0.1383381 0.2557762 1.0450001 4281277475
-0.13634762 0.2557762 1.0450001 4281277459
-0.13397144 0.25504193 1.0420001 4281080579
-0.13160667 0.25430763 1.039 4280885265
-0.12887906 0.25283906 1.033 4282531870
-0.12605144 0.25112572 1.026 4284106540
-0.12409715 0.25112572 1.026 4284368698
-0.12178572 0.25039145 1.023 4284563019
-0.11983715 0.25039145 1.023 4285018460
-0.11788858 0.25039145 1.023 4285489508
-0.11594 0.25039145 1.023 4286549867
-0.11365715 0.24965715 1.0200001 4287528039
-0.11204287 0.25039145 1.023 4287002980
-0.11009429 0.25039145 1.023 4286409832
-0.10814572 0.25039145 1.023 4285556076
-0.10619715 0.25039145 1.023 4284702313
-0.1045543 0.25112572 1.026 4285353317
-0.10260001 0.25112572 1.026 4286014828
-0.10064572 0.25112572 1.026 4286348403
-0.099076197 0.25210479 1.0300001 4286607461
-0.097114295 0.25210479 1.0300001 4286340951
-0.095429532 0.25283906 1.033 4286014307
-0.093461908 0.25283906 1.033 4285948272
-0.091494292 0.25283906 1.033 4285816427
-0.089786671 0.25357336 1.036 4285946214
-0.08781334 0.25357336 1.036 4286012786
-0.085840009 0.25357336 1.036 4286208894
-0.08410953 0.25430763 1.039 4286411385
-0.082130484 0.25430763 1.039 4286871924
-0.080151431 0.25430763 1.039 4287265130
-0.078398101 0.25504193 1.0420001 4287069024
-0.076413341 0.25504193 1.0420001 4286803285
-0.074642859 0.2557762 1.0450001 4286146122
-0.072652385 0.2557762 1.0450001 4285421887
-0.070864767 0.2565105 1.0480001 4283842356
-0.068868577 0.2565105 1.0480001 4282271526
-0.066872388 0.2565105 1.0480001 4282070296
-0.15460287 0.26171336 1.0610001 4281868554
-0.15215048 0.26097336 1.0580001 4281475330
-0.15013525 0.26097336 1.0580001 4281147399
-0.14770001 0.26023334 1.0550001 4281276940
-0.1452762 0.25949335 1.052 4281473046
-0.14327239 0.25949335 1.052 4281472799
-0.14073144 0.25850669 1.0480001 4281473069
-0.1383381 0.25776669 1.0450001 4281670459
-0.1359562 0.25702667 1.0420001 4281800478
-0.13397144 0.25702667 1.0420001 4281407489
-0.13160667 0.25628668 1.039 4280947974
-0.12925334 0.25554669 1.036 4282595339
-0.12654287 0.25406668 1.0300001 4284237598
-0.12409715 0.25308001 1.026 4284433713
-0.12214287 0.25308001 1.026 4284563264
-0.11983715 0.25234002 1.023 4284893006
-0.11788858 0.25234002 1.023 4285229156
-0.11594 0.25234002 1.023 4286476665
-0.11365715 0.25160003 1.0200001 4287719537
-0.11204287 0.25234002 1.023 4287130217
-0.11009429 0.25234002 1.023 4286538347
-0.10814572 0.25234002 1.023 4285949036
-0.10619715 0.25234002 1.023 4285359207
-0.10424858 0.25234002 1.023 4285685858
-0.10260001 0.25308001 1.026 4286082157
-0.10064572 0.25308001 1.026 4286279543
-0.099076197 0.25406668 1.0300001 4286408785
-0.097397149 0.2548067 1.033 4286408234
-0.095429532 0.2548067 1.033 4286408009
-0.093733341 0.25554669 1.036 4286540391
-0.09176001 0.25554669 1.036 4286669412
-0.089786671 0.25554669 1.036 4286472545
-0.08781334 0.25554669 1.036 4286275186
-0.085840009 0.25554669 1.036 4286343811
-0.08410953 0.25628668 1.039 4286417283
-0.082130484 0.25628668 1.039 4285624962
-0.080151431 0.25628668 1.039 4284905575
-0.078398101 0.25702667 1.0420001 4284768588
-0.076413341 0.25702667 1.0420001 4284635943
-0.074642859 0.25776669 1.0450001 4284370177
-0.072652385 0.25776669 1.0450001 4284171526
-0.15416573 0.2629886 1.0580001 4281669904
-0.14569049 0.26224288 1.0550001 4281669133
-0.14327239 0.26149717 1.052 4281734419
-0.14073144 0.26050287 1.0480001 4281736474
-0.1383381 0.25975716 1.0450001 4282065185
-0.1359562 0.25901145 1.0420001 4282326548
-0.13397144 0.25901145 1.0420001 4281669640
-0.13160667 0.25826573 1.039 4281016847
-0.12925334 0.25752002 1.036 4282729751
-0.12654287 0.25602859 1.0300001 4284368935
-0.12409715 0.2550343 1.026 4284499767
-0.12214287 0.2550343 1.026 4284564800
-0.11983715 0.25428858 1.023 4284760905
-0.11788858 0.25428858 1.023 4284962400
-0.11594 0.25428858 1.023 4286408055
-0.11365715 0.25354287 1.0200001 4287851119
-0.11204287 0.25428858 1.023 4287260007
-0.11009429 0.25428858 1.023 4286604905
-0.10814572 0.25428858 1.023 4286276714
-0.10619715 0.25428858 1.023 4285948775
-0.10424858 0.25428858 1.023 4286079587
-0.10260001 0.2550343 1.026 4286146922
-0.10064572 0.2550343 1.026 4286213234
-0.098691434 0.2550343 1.026 4286213214
-0.097114295 0.25602859 1.0300001 4286540618
-0.095429532 0.25677431 1.033 4286804574
-0.093461908 0.25677431 1.033 4287135602
-0.091494292 0.25677431 1.033 4287458664
-0.089786671 0.25752002 1.036 4286999391
-0.08781334 0.25752002 1.036 4286538332
-0.085840009 0.25752002 1.036 4286473817
-0.08410953 0.25826573 1.039 4286341207
-0.082130484 0.25826573 1.039 4284435797
-0.080151431 0.25826573 1.039 4282468936
-0.14073144 0.26249906 1.0480001 4281410567
-0.1383381 0.26174763 1.0450001 4281804039
-0.13634762 0.26174763 1.0450001 4282197515
-0.13397144 0.26099622 1.0420001 4281670926
-0.13160667 0.26024479 1.039 4281144344
-0.12925334 0.25949335 1.036 4282858786
-0.12691143 0.25874192 1.033 4284566831
-0.12458096 0.25799048 1.0300001 4284631868
-0.12214287 0.25698858 1.026 4284762432
-0.12018858 0.25698858 1.026 4284893508
-0.11788858 0.25623715 1.023 4285024348
-0.11594 0.25623715 1.023 4286408308
-0.11399144 0.25623715 1.023 4287853933
-0.11204287 0.25623715 1.023 4287393893
-0.11009429 0.25623715 1.023 4286934631
-0.10814572 0.25623715 1.023 4286737256
-0.10619715 0.25623715 1.023 4286538086
-0.10424858 0.25623715 1.023 4286474084
-0.10260001 0.25698858 1.026 4286474344
-0.10064572 0.25698858 1.026 4286279276
-0.098691434 0.25698858 1.026 4286083691
-0.097397149 0.25874192 1.033 4285753706
-0.095429532 0.25874192 1.033 4285364851
-0.093461908 0.25874192 1.033 4285294972
-0.091494292 0.25874192 1.033 4285163116
-0.089786671 0.25949335 1.036 4284832348
-0.08781334 0.25949335 1.036 4284504646
-0.085840009 0.25949335 1.036 4284304431
-0.083866671 0.25949335 1.036 4284106027
