# .PCD v0.7 - Point Cloud Data file format
VERSION 0.7
FIELDS x y z rgba
SIZE 4 4 4 4
TYPE F F F U
COUNT 1 1 1 1
WIDTH 1049
HEIGHT 1
VIEWPOINT 0 0 0 1 0 0 0
POINTS 1049
DATA ascii
-0.070314288 0.21488573 0.69000006 4288316806
-0.069000006 0.21488573 0.69000006 4288383867
-0.067587622 0.21457431 0.68900001 4288251503
-0.066275239 0.21457431 0.68900001 4288119673
-0.064962864 0.21457431 0.68900001 4288250755
-0.063650481 0.21457431 0.68900001 4288447110
-0.062157147 0.21395144 0.68700004 4288382857
-0.060848575 0.21395144 0.68700004 4288318601
-0.059540004 0.21395144 0.68700004 4288185992
-0.05814667 0.21364002 0.68600005 4287989132
-0.056840003 0.21364002 0.68600005 4288251792
-0.055371433 0.21301715 0.68400002 4288514454
-0.054068577 0.21301715 0.68400002 4288645275
-0.05276572 0.21301715 0.68400002 4288842660
-0.051462859 0.21301715 0.68400002 4289107117
-0.05008667 0.21270573 0.68300003 4289436069
-0.048785716 0.21270573 0.68300003 4289172381
-0.047484767 0.21270573 0.68300003 4288973972
-0.046183813 0.21270573 0.68300003 4288908682
-0.044817146 0.2123943 0.68200004 4288779418
-0.0435181 0.2123943 0.68200004 4288777129
-0.04221905 0.2123943 0.68200004 4288712351
-0.040920004 0.2123943 0.68200004 4288842645
-0.03967905 0.21270573 0.68300003 4288972171
-0.038434289 0.21301715 0.68400002 4288843392
-0.037294287 0.21395144 0.68700004 4288779657
-0.035985716 0.21395144 0.68700004 4287657874
-0.034828573 0.21488573 0.69000006 4286541440
-0.033660002 0.21582001 0.69300002 4286541166
-0.032433335 0.21644287 0.69500005 4286540659
-0.031243812 0.21737716 0.69800001 4285948535
-0.030000001 0.21800001 0.70000005 4285357676
-0.028789526 0.2189343 0.70300001 4285816928
-0.027489526 0.21924573 0.70400006 4286210654
-0.026260002 0.22018002 0.70700002 4286144091
-0.02501905 0.22111431 0.71000004 4286077788
-0.023700001 0.22142573 0.71100003 4286274396
-0.022440001 0.22236001 0.71400005 4286536029
-0.021168573 0.2232943 0.71700001 4286339933
-0.019802859 0.2232943 0.71700001 4286208069
-0.018951429 0.22952287 0.73700005 4286205996
-0.01752381 0.22921145 0.73600006 4286273844
-0.016121905 0.22921145 0.73600006 4286405436
-0.014720001 0.22921145 0.73600006 4286602301
-0.10886668 0.22246668 0.71000004 4281091889
-0.10721143 0.22184001 0.708 4283195184
-0.10571334 0.22152668 0.70700002 4285222939
-0.10436668 0.22152668 0.70700002 4281933318
-0.10302 0.22152668 0.70700002 4278661672
-0.10138572 0.22090001 0.70500004 4282867018
-0.10004286 0.22090001 0.70500004 4287066725
-0.098560005 0.22058669 0.70400006 4287133824
-0.097080961 0.22027335 0.70300001 4287198844
-0.095469527 0.21964668 0.70100003 4287263352
-0.094000004 0.21933335 0.70000005 4287329406
-0.092666671 0.21933335 0.70000005 4287461508
-0.091333337 0.21933335 0.70000005 4287526776
-0.089742862 0.21870668 0.69800001 4287396205
-0.088286676 0.21839334 0.69700003 4287265652
-0.086959057 0.21839334 0.69700003 4287528059
-0.085385717 0.21776669 0.69500005 4287789696
-0.084061913 0.21776669 0.69500005 4288117125
-0.082738101 0.21776669 0.69500005 4288444793
-0.081297152 0.21745335 0.69400001 4288182893
-0.07997524 0.21745335 0.69400001 4287856507
-0.078540005 0.21714002 0.69300002 4287660425
-0.076997146 0.21651335 0.69100004 4287463814
-0.075680956 0.21651335 0.69100004 4287792259
-0.074364766 0.21651335 0.69100004 4288119436
-0.073048577 0.21651335 0.69100004 4288314005
-0.071628578 0.21620001 0.69000006 4288446349
-0.070314288 0.21620001 0.69000006 4288447109
-0.068900004 0.21588668 0.68900001 4288382589
-0.067587622 0.21588668 0.68900001 4288251253
-0.066275239 0.21588668 0.68900001 4288119676
-0.064962864 0.21588668 0.68900001 4288380804
-0.063650481 0.21588668 0.68900001 4288578694
-0.062338099 0.21588668 0.68900001 4288448905
-0.060848575 0.21526001 0.68700004 4288317319
-0.059540004 0.21526001 0.68700004 4287987846
-0.058231432 0.21526001 0.68700004 4287661446
-0.056840003 0.21494669 0.68600005 4288054151
-0.055371433 0.21432002 0.68400002 4288447885
-0.054068577 0.21432002 0.68400002 4288644500
-0.05276572 0.21432002 0.68400002 4288776859
-0.051462859 0.21432002 0.68400002 4289041570
-0.05008667 0.21400668 0.68300003 4289238684
-0.048785716 0.21400668 0.68300003 4289173143
-0.047484767 0.21400668 0.68300003 4289107342
-0.046183813 0.21400668 0.68300003 4289042565
-0.04488286 0.21400668 0.68300003 4288909459
-0.0435181 0.21369335 0.68200004 4288842401
-0.04221905 0.21369335 0.68200004 4288777374
-0.040980004 0.21400668 0.68300003 4288711834
-0.03967905 0.21400668 0.68300003 4288646562
-0.038434289 0.21432002 0.68400002 4288647593
-0.037240002 0.21494669 0.68600005 4288643466
-0.036090478 0.21588668 0.68900001 4287391340
-0.034879051 0.21651335 0.69100004 4286080611
-0.033660002 0.21714002 0.69300002 4286079834
-0.032433335 0.21776669 0.69500005 4286080102
-0.031243812 0.21870668 0.69800001 4286014833
-0.030000001 0.21933335 0.70000005 4285948264
-0.028789526 0.22027335 0.70300001 4286276190
-0.027528573 0.22090001 0.70500004 4286537558
-0.026297145 0.22184001 0.708 4286274894
-0.02501905 0.22246668 0.71000004 4286012754
-0.023766669 0.22340669 0.71300006 4286143575
-0.022502858 0.22434668 0.71600002 4286208342
-0.021227621 0.22528668 0.71900004 4286143318
-0.019858096 0.22528668 0.71900004 4286009417
-0.019002859 0.23155335 0.73900002 4286068284
-0.01754762 0.23092668 0.73700005 4286140477
-0.01614381 0.23092668 0.73700005 4286274366
-0.10902001 0.2241343 0.71100003 4283518771
-0.10751429 0.22381906 0.71000004 4283847992
-0.10586286 0.22318858 0.708 4284176416
-0.10436668 0.22287335 0.70700002 4282660871
-0.10302 0.22287335 0.70700002 4281151266
-0.10138572 0.22224288 0.70500004 4284243260
-0.10004286 0.22224288 0.70500004 4287331164
-0.098560005 0.22192763 0.70400006 4287264891
-0.097080961 0.22161239 0.70300001 4287264121
-0.095469527 0.22098193 0.70100003 4287329142
-0.094000004 0.22066668 0.70000005 4287394170
-0.092666671 0.22066668 0.70000005 4287460477
-0.091333337 0.22066668 0.70000005 4287526518
-0.089742862 0.22003621 0.69800001 4287461486
-0.088286676 0.21972096 0.69700003 4287396468
-0.086959057 0.21972096 0.69700003 4287527546
-0.085631438 0.21972096 0.69700003 4287724160
-0.084061913 0.21909049 0.69500005 4287789701
-0.082738101 0.21909049 0.69500005 4287920243
-0.081297152 0.21877526 0.69400001 4287921761
-0.07997524 0.21877526 0.69400001 4287923575
-0.078540005 0.21846001 0.69300002 4287791244
-0.076997146 0.21782954 0.69100004 4287725194
-0.075680956 0.21782954 0.69100004 4287922823
-0.074364766 0.21782954 0.69100004 4288120722
-0.073048577 0.21782954 0.69100004 4288119452
-0.071628578 0.21751431 0.69000006 4288118672
-0.070314288 0.21751431 0.69000006 4288185220
-0.069000006 0.21751431 0.69000006 4288317056
-0.067587622 0.21719906 0.68900001 4288120443
-0.066275239 0.21719906 0.68900001 4287988864
-0.064962864 0.21719906 0.68900001 4288251012
-0.063650481 0.21719906 0.68900001 4288447878
-0.062338099 0.21719906 0.68900001 4288382600
-0.060848575 0.21656859 0.68700004 4288317062
-0.059540004 0.21656859 0.68700004 4288186244
-0.058231432 0.21656859 0.68700004 4287990657
-0.056840003 0.21625334 0.68600005 4288185725
-0.055533338 0.21625334 0.68600005 4288447621
-0.054068577 0.21562287 0.68400002 4288578701
-0.05276572 0.21562287 0.68400002 4288775314
-0.051462859 0.21562287 0.68400002 4288975510
-0.050160002 0.21562287 0.68400002 4289238164
-0.048785716 0.21530764 0.68300003 4289172881
-0.047484767 0.21530764 0.68300003 4289108617
-0.046183813 0.21530764 0.68300003 4288975232
-0.04488286 0.21530764 0.68300003 4288907661
-0.043581907 0.21530764 0.68300003 4288842649
-0.042280953 0.21530764 0.68300003 4288777372
-0.040980004 0.21530764 0.68300003 4288712351
-0.039737146 0.21562287 0.68400002 4288713401
-0.038434289 0.21562287 0.68400002 4288055506
-0.037240002 0.21625334 0.68600005 4287461772
-0.036090478 0.21719906 0.68900001 4286735941
-0.034879051 0.21782954 0.69100004 4286013254
-0.033660002 0.21846001 0.69300002 4286078790
-0.032386668 0.21877526 0.69400001 4286077785
-0.031243812 0.22003621 0.69800001 4286013803
-0.030000001 0.22066668 0.70000005 4285881956
-0.028789526 0.22161239 0.70300001 4285947740
-0.027528573 0.22224288 0.70500004 4286077519
-0.026371431 0.22381906 0.71000004 4285946177
-0.025054287 0.2241343 0.71100003 4285816905
-0.023766669 0.22476478 0.71300006 4286077521
-0.022502858 0.2257105 0.71600002 4286338384
-0.021227621 0.2266562 0.71900004 4286076751
-0.019858096 0.2266562 0.71900004 4285814861
-0.019080002 0.23390669 0.74200004 4285943371
-0.01754762 0.23233049 0.73700005 4286141509
-0.016012382 0.23043907 0.73100001 4286207807
-0.10902001 0.22548859 0.71100003 4285947455
-0.10751429 0.22517145 0.71000004 4284501559
-0.10586286 0.22453716 0.708 4283060020
-0.10436668 0.22422001 0.70700002 4283382578
-0.10302 0.22422001 0.70700002 4283649609
-0.10167334 0.22422001 0.70700002 4285623904
-0.10004286 0.22358572 0.70500004 4287526764
-0.098700009 0.22358572 0.70500004 4287461496
-0.097080961 0.22295144 0.70300001 4287329650
-0.095469527 0.22231716 0.70100003 4287394925
-0.094000004 0.22200002 0.70000005 4287394932
-0.092666671 0.22200002 0.70000005 4287459963
-0.091333337 0.22200002 0.70000005 4287460978
-0.089742862 0.22136573 0.69800001 4287527018
-0.088413343 0.22136573 0.69800001 4287526770
-0.086959057 0.22104858 0.69700003 4287592059
-0.085631438 0.22104858 0.69700003 4287593093
-0.084061913 0.2204143 0.69500005 4287462544
-0.082738101 0.2204143 0.69500005 4287331455
-0.08141429 0.2204143 0.69500005 4287659887
-0.07997524 0.22009715 0.69400001 4287987579
-0.078653336 0.22009715 0.69400001 4287986568
-0.076997146 0.21914573 0.69100004 4287921286
-0.075680956 0.21914573 0.69100004 4287987077
-0.074364766 0.21914573 0.69100004 4288053900
-0.073048577 0.21914573 0.69100004 4287924371
-0.071628578 0.21882859 0.69000006 4287792268
-0.070314288 0.21882859 0.69000006 4287989124
-0.069000006 0.21882859 0.69000006 4288185985
-0.067587622 0.21851145 0.68900001 4288055166
-0.066275239 0.21851145 0.68900001 4287858306
-0.064962864 0.21851145 0.68900001 4288120454
-0.063650481 0.21851145 0.68900001 4288316809
-0.062338099 0.21851145 0.68900001 4288316556
-0.060848575 0.21787716 0.68700004 4288317065
-0.059540004 0.21787716 0.68700004 4288317829
-0.058231432 0.21787716 0.68700004 4288317315
-0.05692286 0.21787716 0.68700004 4288381313
-0.055533338 0.21756001 0.68600005 4288381830
-0.054068577 0.21692573 0.68400002 4288578443
-0.05276572 0.21692573 0.68400002 4288711053
-0.051462859 0.21692573 0.68400002 4288977550
-0.050160002 0.21692573 0.68400002 4289172880
-0.048785716 0.21660858 0.68300003 4289106323
-0.047484767 0.21660858 0.68300003 4289040270
-0.046183813 0.21660858 0.68300003 4288973193
-0.04488286 0.21660858 0.68300003 4288908437
-0.043581907 0.21660858 0.68300003 4288843170
-0.042280953 0.21660858 0.68300003 4288711839
-0.040980004 0.21660858 0.68300003 4288712605
-0.039737146 0.21692573 0.68400002 4288712601
-0.03854667 0.21756001 0.68600005 4287464853
-0.037240002 0.21756001 0.68600005 4286214777
-0.036090478 0.21851145 0.68900001 4286077276
-0.034879051 0.21914573 0.69100004 4285946970
-0.033708572 0.22009715 0.69400001 4286012759
-0.032386668 0.22009715 0.69400001 4286079081
-0.031199049 0.22104858 0.69700003 4285949564
-0.030000001 0.22200002 0.70000005 4285817435
-0.028830478 0.22326858 0.70400006 4285685819
-0.027606668 0.22422001 0.70700002 4285552196
-0.026408574 0.22548859 0.71100003 4285549646
-0.025054287 0.22548859 0.71100003 4285550163
-0.023766669 0.22612287 0.71300006 4286011224
-0.022440001 0.22644001 0.71400005 4286403920
-0.021227621 0.22802573 0.71900004 4286010184
-0.019858096 0.22802573 0.71900004 4285551688
-0.019105716 0.23563716 0.74300003 4285813833
-0.01754762 0.23373429 0.73700005 4286075465
-0.01614381 0.23373429 0.73700005 4286207048
-0.10902001 0.22684287 0.71100003 4286410570
-0.10751429 0.22652383 0.71000004 4285882678
-0.10586286 0.22588573 0.708 4285422409
-0.10451429 0.22588573 0.708 4285356892
-0.10302 0.22556669 0.70700002 4285358192
-0.10167334 0.22556669 0.70700002 4286279299
-0.10032667 0.22556669 0.70700002 4287265916
-0.098700009 0.22492859 0.70500004 4287264372
-0.097219057 0.22460954 0.70400006 4287263084
-0.095469527 0.22365239 0.70100003 4287329635
-0.094134293 0.22365239 0.70100003 4287395950
-0.092799053 0.22365239 0.70100003 4287395704
-0.091333337 0.22333334 0.70000005 4287460975
-0.090000004 0.22333334 0.70000005 4287461222
-0.088413343 0.22269525 0.69800001 4287526001
-0.087083817 0.22269525 0.69800001 4287526779
-0.085631438 0.22237621 0.69700003 4287593099
-0.084303819 0.22237621 0.69700003 4287527322
-0.082976192 0.22237621 0.69700003 4287462283
-0.08141429 0.22173811 0.69500005 4287725180
-0.07997524 0.22141907 0.69400001 4287987328
-0.078653336 0.22141907 0.69400001 4287986563
-0.077220008 0.22110002 0.69300002 4287985795
-0.075900003 0.22110002 0.69300002 4288051843
-0.074364766 0.22046192 0.69100004 4288051847
-0.073048577 0.22046192 0.69100004 4287988362
-0.071628578 0.22014287 0.69000006 4287923335
-0.070314288 0.22014287 0.69000006 4288054916
-0.069000006 0.22014287 0.69000006 4288251267
-0.067587622 0.21982382 0.68900001 4288119937
-0.066275239 0.21982382 0.68900001 4288054661
-0.065057144 0.22014287 0.69000006 4288251784
-0.063650481 0.21982382 0.68900001 4288448140
-0.062338099 0.21982382 0.68900001 4288382608
-0.06102572 0.21982382 0.68900001 4288382347
-0.059713338 0.21982382 0.68900001 4288383110
-0.058231432 0.21918572 0.68700004 4288448390
-0.05692286 0.21918572 0.68700004 4288447877
-0.055533338 0.21886668 0.68600005 4288512647
-0.054068577 0.21822858 0.68400002 4288643721
-0.05276572 0.21822858 0.68400002 4288775304
-0.051462859 0.21822858 0.68400002 4289106310
-0.050160002 0.21822858 0.68400002 4289435021
-0.048785716 0.21790954 0.68300003 4289236884
-0.047484767 0.21790954 0.68300003 4289104275
-0.046183813 0.21790954 0.68300003 4288974226
-0.04488286 0.21790954 0.68300003 4288909470
-0.043581907 0.21790954 0.68300003 4288711850
-0.042280953 0.21790954 0.68300003 4288580003
-0.040980004 0.21790954 0.68300003 4288581019
-0.039737146 0.21822858 0.68400002 4288648826
-0.03854667 0.21886668 0.68600005 4287199576
-0.037240002 0.21886668 0.68600005 4285820774
-0.036090478 0.21982382 0.68900001 4285685875
-0.034879051 0.22046192 0.69100004 4285619310
-0.033708572 0.22141907 0.69400001 4285882472
-0.032386668 0.22141907 0.69400001 4286145402
-0.031199049 0.22237621 0.69700003 4285883788
-0.029914288 0.22269525 0.69800001 4285621331
-0.028830478 0.22460954 0.70400006 4285420057
-0.027645716 0.22588573 0.708 4285223482
-0.026408574 0.22684287 0.71100003 4285284954
-0.025054287 0.22684287 0.71100003 4285412188
-0.023766669 0.22748096 0.71300006 4285812062
-0.022502858 0.22843811 0.71600002 4286272847
-0.021227621 0.22939526 0.71900004 4286010432
-0.019940954 0.2303524 0.72200006 4285812804
-0.019080002 0.23673335 0.74200004 4286009415
-0.017666668 0.23673335 0.74200004 4286270796
-0.10902001 0.22819716 0.71100003 4286803038
-0.10721143 0.2272343 0.708 4287262039
-0.10586286 0.2272343 0.708 4287720282
-0.10451429 0.2272343 0.708 4287394908
-0.10302 0.22691335 0.70700002 4286999404
-0.10167334 0.22691335 0.70700002 4286999675
-0.10032667 0.22691335 0.70700002 4287001209
-0.098700009 0.22627145 0.70500004 4287132278
-0.097219057 0.22595049 0.70400006 4287197811
-0.095741913 0.22562954 0.70300001 4287264880
-0.094134293 0.22498764 0.70100003 4287330678
-0.092799053 0.22498764 0.70100003 4287396732
-0.091463819 0.22498764 0.70100003 4287395964
-0.090000004 0.22466668 0.70000005 4287461499
-0.08866667 0.22466668 0.70000005 4287461500
-0.087083817 0.22402477 0.69800001 4287527293
-0.08575429 0.22402477 0.69800001 4287592839
-0.084303819 0.22370383 0.69700003 4287591057
-0.082976192 0.22370383 0.69700003 4287593096
-0.08141429 0.22306192 0.69500005 4287791486
-0.07997524 0.22274096 0.69400001 4287922048
-0.078653336 0.22274096 0.69400001 4287986818
-0.077220008 0.22242002 0.69300002 4288052097
-0.075900003 0.22242002 0.69300002 4288051840
-0.074580006 0.22242002 0.69300002 4288052616
-0.073048577 0.22177811 0.69100004 4288053649
-0.071732387 0.22177811 0.69100004 4287988874
-0.070416197 0.22177811 0.69100004 4288120963
-0.069000006 0.22145715 0.69000006 4288251520
-0.067685716 0.22145715 0.69000006 4288249981
-0.066275239 0.22113621 0.68900001 4288185985
-0.065057144 0.22145715 0.69000006 4288383366
-0.063650481 0.22113621 0.68900001 4288579982
-0.062338099 0.22113621 0.68900001 4288514199
-0.06102572 0.22113621 0.68900001 4288383121
-0.059713338 0.22113621 0.68900001 4288448907
-0.058231432 0.2204943 0.68700004 4288514447
-0.05692286 0.2204943 0.68700004 4288579988
-0.055614289 0.2204943 0.68700004 4288578962
-0.05422667 0.22017334 0.68600005 4288708496
-0.052920002 0.22017334 0.68600005 4288776337
-0.051462859 0.21953145 0.68400002 4289237394
-0.050160002 0.21953145 0.68400002 4289696660
-0.048785716 0.21921049 0.68300003 4289432726
-0.047484767 0.21921049 0.68300003 4289105301
-0.046183813 0.21921049 0.68300003 4288975253
-0.04488286 0.21921049 0.68300003 4288843417
-0.043581907 0.21921049 0.68300003 4288645277
-0.04234286 0.21953145 0.68400002 4288449693
-0.041040003 0.21953145 0.68400002 4288513692
-0.039737146 0.21953145 0.68400002 4288511105
-0.03854667 0.22017334 0.68600005 4286928997
-0.037294287 0.2204943 0.68700004 4285357673
-0.03614286 0.22145715 0.69000006 4285357421
-0.034879051 0.22177811 0.69100004 4285291885
-0.033660002 0.22242002 0.69300002 4285751916
-0.032386668 0.22274096 0.69400001 4286211703
-0.031199049 0.22370383 0.69700003 4285818498
-0.030000001 0.22466668 0.70000005 4285353546
-0.02887143 0.22627145 0.70500004 4285084177
-0.027645716 0.2272343 0.708 4284825138
-0.026371431 0.2278762 0.71000004 4285019732
-0.025054287 0.22819716 0.71100003 4285220439
-0.023700001 0.22819716 0.71100003 4285682522
-0.022502858 0.22980192 0.71600002 4286076237
-0.021316191 0.23172763 0.72200006 4286076481
-0.020023812 0.2326905 0.72500002 4286009671
-0.018642858 0.2326905 0.72500002 4286205261
-0.017285716 0.23301144 0.72600001 4286403411
-0.10902001 0.22955145 0.71100003 4286803058
-0.10721143 0.22858287 0.708 4287065976
-0.10586286 0.22858287 0.708 4287328618
-0.10436668 0.22826001 0.70700002 4287131484
-0.10302 0.22826001 0.70700002 4286999144
-0.10167334 0.22826001 0.70700002 4286999923
-0.10032667 0.22826001 0.70700002 4286999926
-0.098700009 0.2276143 0.70500004 4287131512
-0.097219057 0.22729145 0.70400006 4287196795
-0.095741913 0.22696859 0.70300001 4287198333
-0.094402865 0.22696859 0.70300001 4287265151
-0.092799053 0.22632287 0.70100003 4287264896
-0.091463819 0.22632287 0.70100003 4287329672
-0.090128578 0.22632287 0.70100003 4287395472
-0.08866667 0.22600001 0.70000005 4287462023
-0.087333336 0.22600001 0.70000005 4287528062
-0.08575429 0.2253543 0.69800001 4287594115
-0.084424764 0.2253543 0.69800001 4287593096
-0.083095245 0.2253543 0.69800001 4287593348
-0.081648573 0.22503145 0.69700003 4287725184
-0.080090478 0.22438572 0.69500005 4287856512
-0.078766674 0.22438572 0.69500005 4287921792
-0.077331431 0.22406287 0.69400001 4288052863
-0.076009527 0.22406287 0.69400001 4288118397
-0.074580006 0.22374001 0.69300002 4288184202
-0.073260002 0.22374001 0.69300002 4287988375
-0.071732387 0.2230943 0.69100004 4287857805
-0.070416197 0.2230943 0.69100004 4288054658
-0.069000006 0.22277144 0.69000006 4288186749
-0.067685716 0.22277144 0.69000006 4288186232
-0.066371433 0.22277144 0.69000006 4288186494
-0.065057144 0.22277144 0.69000006 4288054916
-0.063650481 0.22244859 0.68900001 4287991185
-0.062338099 0.22244859 0.68900001 4288120989
-0.06102572 0.22244859 0.68900001 4288252567
-0.059713338 0.22244859 0.68900001 4288318096
-0.058400955 0.22244859 0.68900001 4288448921
-0.05692286 0.22180288 0.68700004 4288514466
-0.055614289 0.22180288 0.68700004 4288580508
-0.05422667 0.22148001 0.68600005 4288645014
-0.052920002 0.22148001 0.68600005 4288711322
-0.051462859 0.2208343 0.68400002 4289106077
-0.050160002 0.2208343 0.68400002 4289501851
-0.048857145 0.2208343 0.68400002 4289302680
-0.047484767 0.22051144 0.68300003 4289105048
-0.046183813 0.22051144 0.68300003 4288974487
-0.044948574 0.2208343 0.68400002 4288843668
-0.043581907 0.22051144 0.68300003 4288712336
-0.04234286 0.2208343 0.68400002 4288583575
-0.041040003 0.2208343 0.68400002 4287725469
-0.039737146 0.2208343 0.68400002 4286938248
-0.03854667 0.22148001 0.68600005 4286209650
-0.037240002 0.22148001 0.68600005 4285485677
-0.03614286 0.22277144 0.69000006 4285553255
-0.034879051 0.2230943 0.69100004 4285618796
-0.033660002 0.22374001 0.69300002 4285949040
-0.032433335 0.22438572 0.69500005 4286213492
-0.031243812 0.2253543 0.69800001 4285683576
-0.030128574 0.22696859 0.70300001 4285217857
-0.02887143 0.2276143 0.70500004 4284889609
-0.027645716 0.22858287 0.708 4284628779
-0.026371431 0.22922859 0.71000004 4284958797
-0.02501905 0.22922859 0.71000004 4285225553
-0.023766669 0.23019716 0.71300006 4285618005
-0.022502858 0.23116574 0.71600002 4285945419
-0.021345716 0.23342574 0.72300005 4286010945
-0.020051429 0.2343943 0.72600001 4286009930
-0.018668573 0.2343943 0.72600001 4286010194
-0.017285716 0.2343943 0.72600001 4286077530
-0.10706001 0.22960669 0.70700002 4286804096
-0.10571334 0.22960669 0.70700002 4286869362
-0.10436668 0.22960669 0.70700002 4286934629
-0.10302 0.22960669 0.70700002 4286934890
-0.10167334 0.22960669 0.70700002 4287000431
-0.10032667 0.22960669 0.70700002 4287000434
-0.09898001 0.22960669 0.70700002 4287131510
-0.097357146 0.22895716 0.70500004 4287197305
-0.095878102 0.22863239 0.70400006 4287197564
-0.094402865 0.22830763 0.70300001 4287132797
-0.092799053 0.22765811 0.70100003 4287199102
-0.091463819 0.22765811 0.70100003 4287263619
-0.090128578 0.22765811 0.70100003 4287393671
-0.08866667 0.22733335 0.70000005 4287460997
-0.087333336 0.22733335 0.70000005 4287528322
-0.08575429 0.22668383 0.69800001 4287593862
-0.084424764 0.22668383 0.69800001 4287594121
-0.083095245 0.22668383 0.69800001 4287593859
-0.081648573 0.22635907 0.69700003 4287659390
-0.080090478 0.22570954 0.69500005 4287725182
-0.078766674 0.22570954 0.69500005 4287922302
-0.077331431 0.22538477 0.69400001 4288053113
-0.076009527 0.22538477 0.69400001 4288184180
-0.074580006 0.22506002 0.69300002 4288249730
-0.073260002 0.22506002 0.69300002 4287988880
-0.071940005 0.22506002 0.69300002 4287725961
-0.070416197 0.22441049 0.69100004 4287921794
-0.069100007 0.22441049 0.69100004 4288120193
-0.067685716 0.22408573 0.69000006 4288121215
-0.066371433 0.22408573 0.69000006 4288119668
-0.065057144 0.22408573 0.69000006 4287789930
-0.063650481 0.22376096 0.68900001 4287395714
-0.062338099 0.22376096 0.68900001 4287725722
-0.06102572 0.22376096 0.68900001 4288055188
-0.059713338 0.22376096 0.68900001 4288252558
-0.058400955 0.22376096 0.68900001 4288382867
-0.05692286 0.22311145 0.68700004 4288448152
-0.055614289 0.22311145 0.68700004 4288513688
-0.054305717 0.22311145 0.68700004 4288579480
-0.052997146 0.22311145 0.68700004 4288645271
-0.051613338 0.22278668 0.68600005 4288973974
-0.050160002 0.22213715 0.68400002 4289237399
-0.048857145 0.22213715 0.68400002 4289170841
-0.047554288 0.22213715 0.68400002 4289039510
-0.046251431 0.22213715 0.68400002 4288908691
-0.044948574 0.22213715 0.68400002 4288778134
-0.043581907 0.2218124 0.68300003 4288711066
-0.04234286 0.22213715 0.68400002 4288643467
-0.041040003 0.22213715 0.68400002 4286997116
-0.039737146 0.22213715 0.68400002 4285293433
-0.03854667 0.22278668 0.68600005 4285420406
-0.037240002 0.22278668 0.68600005 4285553268
-0.036090478 0.22376096 0.68900001 4285750898
-0.034879051 0.22441049 0.69100004 4285947765
-0.033660002 0.22506002 0.69300002 4286080632
-0.032433335 0.22570954 0.69500005 4286211444
-0.031199049 0.22635907 0.69700003 4285615727
-0.030042859 0.22765811 0.70100003 4285022798
-0.02887143 0.22895716 0.70500004 4284758317
-0.027606668 0.22960669 0.70700002 4284433726
-0.026371431 0.23058097 0.71000004 4284829519
-0.025054287 0.23090573 0.71100003 4285224280
-0.023766669 0.23155525 0.71300006 4285552738
-0.022534287 0.23285431 0.71700001 4285814614
-0.021316191 0.23447812 0.72200006 4285946186
-0.020023812 0.2354524 0.72500002 4286010441
-0.018642858 0.2354524 0.72500002 4285879111
-0.017261906 0.2354524 0.72500002 4285683279
-0.015880954 0.2354524 0.72500002 4285879895
-0.10706001 0.23095335 0.70700002 4286672519
-0.10586286 0.23128001 0.708 4286672507
-0.10436668 0.23095335 0.70700002 4286803822
-0.10302 0.23095335 0.70700002 4286870892
-0.10167334 0.23095335 0.70700002 4287000938
-0.10032667 0.23095335 0.70700002 4287066223
-0.09898001 0.23095335 0.70700002 4287131763
-0.097357146 0.23030001 0.70500004 4287197559
-0.096014291 0.23030001 0.70500004 4287132027
-0.094537146 0.22997335 0.70400006 4287065980
-0.093063816 0.22964668 0.70300001 4287198076
-0.091724768 0.22964668 0.70300001 4287262845
-0.090128578 0.22899334 0.70100003 4287328382
-0.08866667 0.22866668 0.70000005 4287394178
-0.087333336 0.22866668 0.70000005 4287526278
-0.086000003 0.22866668 0.70000005 4287659144
-0.084666669 0.22866668 0.70000005 4287659402
-0.083095245 0.22801335 0.69800001 4287659651
-0.081648573 0.22768669 0.69700003 4287724667
-0.080090478 0.22703335 0.69500005 4287724668
-0.078766674 0.22703335 0.69500005 4287855740
-0.077331431 0.22670668 0.69400001 4287922036
-0.076009527 0.22670668 0.69400001 4288052843
-0.074580006 0.22638002 0.69300002 4288117626
-0.073260002 0.22638002 0.69300002 4287921800
-0.071940005 0.22638002 0.69300002 4287790725
-0.070416197 0.22572668 0.69100004 4288053378
-0.069100007 0.22572668 0.69100004 4288316292
-0.067685716 0.22540002 0.69000006 4287265670
-0.066371433 0.22540002 0.69000006 4286218091
-0.065057144 0.22540002 0.69000006 4285882191
-0.063742861 0.22540002 0.69000006 4285551219
-0.062338099 0.22507335 0.68900001 4286871191
-0.06102572 0.22507335 0.68900001 4288252050
-0.059713338 0.22507335 0.68900001 4288317068
-0.058400955 0.22507335 0.68900001 4288381837
-0.057088576 0.22507335 0.68900001 4288447118
-0.055614289 0.22442001 0.68700004 4288512148
-0.054305717 0.22442001 0.68700004 4288578457
-0.052997146 0.22442001 0.68700004 4288644244
-0.051613338 0.22409335 0.68600005 4289040014
-0.050160002 0.22344002 0.68400002 4289434004
-0.048857145 0.22344002 0.68400002 4289170329
-0.047554288 0.22344002 0.68400002 4288972948
-0.046251431 0.22344002 0.68400002 4288908942
-0.044948574 0.22344002 0.68400002 4288910745
-0.043645717 0.22344002 0.68400002 4288186788
-0.04234286 0.22344002 0.68400002 4287529344
-0.041040003 0.22344002 0.68400002 4286539867
-0.039737146 0.22344002 0.68400002 4285618795
-0.038434289 0.22344002 0.68400002 4285488506
-0.037240002 0.22409335 0.68600005 4285359228
-0.03614286 0.22540002 0.69000006 4285817213
-0.034980003 0.22638002 0.69300002 4286275455
-0.033660002 0.22638002 0.69300002 4286278016
-0.032433335 0.22703335 0.69500005 4286215027
-0.031199049 0.22768669 0.69700003 4285683302
-0.02987143 0.22768669 0.69700003 4285154907
-0.02887143 0.23030001 0.70500004 4285024336
-0.027645716 0.23128001 0.708 4284894801
-0.026408574 0.23226002 0.71100003 4285026129
-0.025054287 0.23226002 0.71100003 4285157984
-0.023766669 0.23291335 0.71300006 4285354862
-0.022534287 0.23422001 0.71700001 4285551713
-0.021316191 0.23585334 0.72200006 4285748307
-0.020023812 0.23683335 0.72500002 4285944648
-0.018642858 0.23683335 0.72500002 4285879100
-0.017261906 0.23683335 0.72500002 4285813829
-0.015880954 0.23683335 0.72500002 4286010189
-0.10586286 0.23262858 0.708 4286475378
-0.10451429 0.23262858 0.708 4286671977
-0.10316572 0.23262858 0.708 4286803815
-0.10167334 0.23230001 0.70700002 4287000166
-0.10032667 0.23230001 0.70700002 4287131500
-0.09898001 0.23230001 0.70700002 4287197298
-0.097357146 0.23164287 0.70500004 4287197563
-0.096014291 0.23164287 0.70500004 4287132549
-0.094537146 0.2313143 0.70400006 4287001216
-0.093063816 0.23098573 0.70300001 4287132796
-0.091724768 0.23098573 0.70300001 4287263096
-0.090128578 0.23032859 0.70100003 4287263093
-0.08866667 0.23000002 0.70000005 4287262334
-0.087333336 0.23000002 0.70000005 4287458183
-0.086000003 0.23000002 0.70000005 4287658117
-0.084424764 0.22934288 0.69800001 4287724931
-0.083095245 0.22934288 0.69800001 4287724416
-0.081648573 0.22901431 0.69700003 4287724157
-0.080090478 0.22835715 0.69500005 4287723391
-0.078766674 0.22835715 0.69500005 4287787904
-0.077442862 0.22835715 0.69500005 4287790202
-0.076009527 0.22802858 0.69400001 4287921780
-0.074687622 0.22802858 0.69400001 4287986810
-0.073260002 0.22770001 0.69300002 4287921025
-0.071940005 0.22770001 0.69300002 4287790208
-0.070416197 0.22704287 0.69100004 4288118911
-0.069100007 0.22704287 0.69100004 4288444778
-0.067685716 0.2267143 0.69000006 4286341206
-0.066371433 0.2267143 0.69000006 4284241471
-0.065057144 0.2267143 0.69000006 4283969576
-0.063742861 0.2267143 0.69000006 4283652192
-0.062338099 0.22638573 0.68900001 4286087063
-0.06102572 0.22638573 0.68900001 4288447376
-0.059713338 0.22638573 0.68900001 4288447368
-0.058400955 0.22638573 0.68900001 4288381571
-0.057088576 0.22638573 0.68900001 4288446333
-0.055614289 0.22572859 0.68700004 4288447110
-0.054305717 0.22572859 0.68700004 4288512398
-0.052997146 0.22572859 0.68700004 4288579979
-0.051613338 0.22540002 0.68600005 4289108103
-0.050160002 0.22474287 0.68400002 4289565585
-0.048857145 0.22474287 0.68400002 4289234075
-0.047554288 0.22474287 0.68400002 4288908438
-0.046251431 0.22474287 0.68400002 4288974482
-0.044948574 0.22474287 0.68400002 4288973703
-0.043645717 0.22474287 0.68400002 4287727229
-0.04234286 0.22474287 0.68400002 4286411121
-0.041040003 0.22474287 0.68400002 4286144870
-0.039737146 0.22474287 0.68400002 4285882731
-0.03854667 0.22540002 0.68600005 4285555824
-0.037240002 0.22540002 0.68600005 4285162099
-0.03614286 0.2267143 0.69000006 4285882742
-0.034980003 0.22770001 0.69300002 4286604664
-0.033708572 0.22802858 0.69400001 4286409593
-0.032433335 0.22835715 0.69500005 4286211690
-0.031109527 0.22835715 0.69500005 4285747035
-0.029785717 0.22835715 0.69500005 4285222239
-0.02887143 0.23164287 0.70500004 4285288803
-0.027723812 0.23328573 0.71000004 4285354589
-0.026408574 0.2336143 0.71100003 4285222486
-0.025124764 0.23427144 0.71300006 4285091423
-0.023766669 0.23427144 0.71300006 4285222248
-0.022502858 0.23525716 0.71600002 4285288542
-0.021316191 0.23722859 0.72200006 4285550675
-0.020023812 0.2382143 0.72500002 4285813067
-0.018642858 0.2382143 0.72500002 4285878339
-0.017261906 0.2382143 0.72500002 4285944394
-0.10586286 0.23397715 0.708 4286737001
-0.10451429 0.23397715 0.708 4286803043
-0.10302 0.23364668 0.70700002 4286803043
-0.10167334 0.23364668 0.70700002 4287065442
-0.10032667 0.23364668 0.70700002 4287262569
-0.09898001 0.23364668 0.70700002 4287197040
-0.097357146 0.23298573 0.70500004 4287131520
-0.095878102 0.23265526 0.70400006 4287132303
-0.094537146 0.23265526 0.70400006 4287198085
-0.093063816 0.23232478 0.70300001 4287328891
-0.091724768 0.23232478 0.70300001 4287524979
-0.090128578 0.23166382 0.70100003 4287393643
-0.08866667 0.23133335 0.70000005 4287326585
-0.087333336 0.23133335 0.70000005 4287459719
-0.086000003 0.23133335 0.70000005 4287658626
-0.084424764 0.23067239 0.69800001 4287658620
-0.083095245 0.23067239 0.69800001 4287723646
-0.081648573 0.23034193 0.69700003 4287657855
-0.080090478 0.22968097 0.69500005 4287656834
-0.078766674 0.22968097 0.69500005 4287723908
-0.077442862 0.22968097 0.69500005 4287856768
-0.076009527 0.22935049 0.69400001 4287987068
-0.074687622 0.22935049 0.69400001 4288183675
-0.073260002 0.22902001 0.69300002 4288052601
-0.071940005 0.22902001 0.69300002 4287920251
-0.070416197 0.22835906 0.69100004 4287134076
-0.069100007 0.22835906 0.69100004 4286349393
-0.067685716 0.22802858 0.69000006 4284897061
-0.066371433 0.22802858 0.69000006 4283451923
-0.065057144 0.22802858 0.69000006 4284632577
-0.063742861 0.22802858 0.69000006 4285816396
-0.062338099 0.22769812 0.68900001 4287265431
-0.06102572 0.22769812 0.68900001 4288709518
-0.059713338 0.22769812 0.68900001 4288578692
-0.058400955 0.22769812 0.68900001 4288381304
-0.057088576 0.22769812 0.68900001 4288381804
-0.055776194 0.22769812 0.68900001 4288382840
-0.054305717 0.22703716 0.68700004 4288251523
-0.052997146 0.22703716 0.68700004 4288120194
-0.051613338 0.22670668 0.68600005 4288844160
-0.05030667 0.22670668 0.68600005 4289568142
-0.048857145 0.22604573 0.68400002 4289303196
-0.047554288 0.22604573 0.68400002 4289107097
-0.046251431 0.22604573 0.68400002 4288582038
-0.044948574 0.22604573 0.68400002 4288054390
-0.043645717 0.22604573 0.68400002 4286603605
-0.04234286 0.22604573 0.68400002 4285095267
-0.041040003 0.22604573 0.68400002 4285489777
-0.039737146 0.22604573 0.68400002 4285817964
-0.03854667 0.22670668 0.68600005 4285620582
-0.037240002 0.22670668 0.68600005 4285423211
-0.036090478 0.22769812 0.68900001 4285949039
-0.034879051 0.22835906 0.69100004 4286539633
-0.033660002 0.22902001 0.69300002 4286277746
-0.032433335 0.22968097 0.69500005 4286081377
-0.031109527 0.22968097 0.69500005 4285418064
-0.029785717 0.22968097 0.69500005 4284763235
-0.02887143 0.23298573 0.70500004 4285092982
-0.027723812 0.23463811 0.71000004 4285488233
-0.026408574 0.23496859 0.71100003 4285223515
-0.025054287 0.23496859 0.71100003 4284959327
-0.023766669 0.23562954 0.71300006 4285090658
-0.022502858 0.23662096 0.71600002 4285222235
-0.021168573 0.23695144 0.71700001 4285485139
-0.019802859 0.23695144 0.71700001 4285747791
-0.018642858 0.23959525 0.72500002 4285813322
-0.10451429 0.23532572 0.708 4286934369
-0.10302 0.23499335 0.70700002 4286803040
-0.10181715 0.23532572 0.708 4287130719
-0.10032667 0.23499335 0.70700002 4287393125
-0.09898001 0.23499335 0.70700002 4287262058
-0.097357146 0.23432858 0.70500004 4287065976
-0.095878102 0.23399621 0.70400006 4287197574
-0.094537146 0.23399621 0.70400006 4287328384
-0.093063816 0.23366383 0.70300001 4287590777
-0.091463819 0.23299906 0.70100003 4287787642
-0.090128578 0.23299906 0.70100003 4287590778
-0.08866667 0.23266669 0.70000005 4287328894
-0.087333336 0.23266669 0.70000005 4287460994
-0.086000003 0.23266669 0.70000005 4287592320
-0.084666669 0.23266669 0.70000005 4287658366
-0.083095245 0.23200192 0.69800001 4287658367
-0.081765719 0.23200192 0.69800001 4287657856
-0.080320954 0.23166955 0.69700003 4287592578
-0.078766674 0.23100477 0.69500005 4287724676
-0.077442862 0.23100477 0.69500005 4287855750
-0.076009527 0.23067239 0.69400001 4288117384
-0.074687622 0.23067239 0.69400001 4288315016
-0.073365718 0.23067239 0.69400001 4288184968
-0.072043814 0.23067239 0.69400001 4287984999
-0.070620008 0.23034002 0.69300002 4286147655
-0.069100007 0.22967525 0.69100004 4284242221
-0.067783818 0.22967525 0.69100004 4283446035
-0.066371433 0.22934288 0.69000006 4282600737
-0.065057144 0.22934288 0.69000006 4285292846
-0.063742861 0.22934288 0.69000006 4287920229
-0.062338099 0.22901049 0.68900001 4288448667
-0.06102572 0.22901049 0.68900001 4288972432
-0.059713338 0.22901049 0.68900001 4288711045
-0.058400955 0.22901049 0.68900001 4288382336
-0.057088576 0.22901049 0.68900001 4288382588
-0.055776194 0.22901049 0.68900001 4288317314
-0.054463815 0.22901049 0.68900001 4287990152
-0.053151432 0.22901049 0.68900001 4287596683
-0.051688574 0.22834572 0.68700004 4288580494
-0.05030667 0.22801335 0.68600005 4289500818
-0.049000002 0.22801335 0.68600005 4289369238
-0.047554288 0.22734858 0.68400002 4289239430
-0.046251431 0.22734858 0.68400002 4288192118
-0.044948574 0.22734858 0.68400002 4287128401
-0.043645717 0.22734858 0.68400002 4285472299
-0.04234286 0.22734858 0.68400002 4283779663
-0.041040003 0.22734858 0.68400002 4284770164
-0.039737146 0.22734858 0.68400002 4285752425
-0.03854667 0.22801335 0.68600005 4285750623
-0.037294287 0.22834572 0.68700004 4285685610
-0.03614286 0.22934288 0.69000006 4286081141
-0.034980003 0.23034002 0.69300002 4286409838
-0.033708572 0.23067239 0.69400001 4286145639
-0.032386668 0.23067239 0.69400001 4285879124
-0.031109527 0.23100477 0.69500005 4285080641
-0.029914288 0.23200192 0.69800001 4284235599
-0.028789526 0.23366383 0.70300001 4284962654
-0.027450478 0.23366383 0.70300001 4285619036
-0.026408574 0.23632288 0.71100003 4285223514
-0.025054287 0.23632288 0.71100003 4284829017
-0.023766669 0.23698764 0.71300006 4284959065
-0.022534287 0.23831716 0.71700001 4285091140
-0.021168573 0.23831716 0.71700001 4285353776
-0.019802859 0.23831716 0.71700001 4285616699
-0.018642858 0.2409762 0.72500002 4285748039
-0.10436668 0.23634002 0.70700002 4286804063
-0.10302 0.23634002 0.70700002 4286803038
-0.10167334 0.23634002 0.70700002 4286999388
-0.10032667 0.23634002 0.70700002 4287196000
-0.098700009 0.23567145 0.70500004 4287131236
-0.097219057 0.23533715 0.70400006 4287130993
-0.095878102 0.23533715 0.70400006 4287262333
-0.094402865 0.23500288 0.70300001 4287392634
-0.093063816 0.23500288 0.70300001 4287459191
-0.091463819 0.2343343 0.70100003 4287592320
-0.090128578 0.2343343 0.70100003 4287525769
-0.08866667 0.23400001 0.70000005 4287395971
-0.087333336 0.23400001 0.70000005 4287592060
-0.086000003 0.23400001 0.70000005 4287788158
-0.084424764 0.23333144 0.69800001 4287658368
-0.083095245 0.23333144 0.69800001 4287593856
-0.081648573 0.23299716 0.69700003 4287527552
-0.080320954 0.23299716 0.69700003 4287527042
-0.078766674 0.23232859 0.69500005 4287593348
-0.077442862 0.23232859 0.69500005 4287724428
-0.076009527 0.2319943 0.69400001 4287921299
-0.074687622 0.2319943 0.69400001 4288183701
-0.073365718 0.2319943 0.69400001 4287198615
-0.072043814 0.2319943 0.69400001 4286213460
-0.070620008 0.23166001 0.69300002 4285091089
-0.069300003 0.23166001 0.69300002 4283974921
-0.067783818 0.23099144 0.69100004 4284697601
-0.06646762 0.23099144 0.69100004 4285355310
-0.065057144 0.23065716 0.69000006 4286739547
-0.063742861 0.23065716 0.69000006 4288059773
-0.062428575 0.23065716 0.69000006 4288383903
-0.06102572 0.23032287 0.68900001 4288709522
-0.059713338 0.23032287 0.68900001 4288513413
-0.058400955 0.23032287 0.68900001 4288382088
-0.057088576 0.23032287 0.68900001 4288317067
-0.055776194 0.23032287 0.68900001 4288317324
-0.054463815 0.23032287 0.68900001 4288185997
-0.053151432 0.23032287 0.68900001 4287989140
-0.051688574 0.2296543 0.68700004 4288646299
-0.050380003 0.2296543 0.68700004 4289305238
-0.049000002 0.22932002 0.68600005 4289238928
-0.047554288 0.22865145 0.68400002 4289240947
-0.04638667 0.22932002 0.68600005 4286871126
-0.044948574 0.22865145 0.68400002 4284500780
-0.043645717 0.22865145 0.68400002 4284430337
-0.04234286 0.22865145 0.68400002 4284433468
-0.041040003 0.22865145 0.68400002 4285096310
-0.039737146 0.22865145 0.68400002 4285818727
-0.03854667 0.22932002 0.68600005 4285751127
-0.037294287 0.2296543 0.68700004 4285683817
-0.036090478 0.23032287 0.68900001 4286015867
-0.035030477 0.2319943 0.69400001 4286413675
-0.033708572 0.2319943 0.69400001 4286211931
-0.032433335 0.23232859 0.69500005 4286011974
-0.031199049 0.23299716 0.69700003 4285479729
-0.029914288 0.23333144 0.69800001 4285019451
-0.028707622 0.2343343 0.70100003 4285420613
-0.027723812 0.23734288 0.71000004 4285883727
-0.02648286 0.23834573 0.71300006 4285158745
-0.025054287 0.23767716 0.71100003 4284436052
-0.023766669 0.23834573 0.71300006 4284763727
-0.022534287 0.23968287 0.71700001 4285091886
-0.021168573 0.23968287 0.71700001 4285354508
-0.019802859 0.23968287 0.71700001 4285682984
-0.10436668 0.23768668 0.70700002 4286675045
-0.10302 0.23768668 0.70700002 4286803037
-0.10167334 0.23768668 0.70700002 4286867286
-0.10032667 0.23768668 0.70700002 4286933083
-0.09898001 0.23768668 0.70700002 4287066465
-0.097357146 0.23701431 0.70500004 4287129963
-0.095878102 0.23667811 0.70400006 4287262324
-0.094537146 0.23667811 0.70400006 4287392113
-0.093063816 0.23634192 0.70300001 4287392367
-0.091724768 0.23634192 0.70300001 4287393139
-0.090128578 0.23566954 0.70100003 4287458680
-0.088793337 0.23566954 0.70100003 4287460212
-0.087333336 0.23533335 0.70000005 4287722864
-0.086000003 0.23533335 0.70000005 4287984760
-0.084666669 0.23533335 0.70000005 4287723648
-0.083333336 0.23533335 0.70000005 4287462272
-0.081765719 0.23466097 0.69800001 4287462785
-0.080320954 0.23432478 0.69700003 4287396736
-0.078993335 0.23432478 0.69700003 4287527808
-0.077442862 0.2336524 0.69500005 4287593866
-0.07611905 0.2336524 0.69500005 4287790741
-0.074687622 0.23331621 0.69400001 4287985783
-0.073365718 0.23331621 0.69400001 4286212186
-0.072043814 0.23331621 0.69400001 4284371761
-0.070620008 0.23298001 0.69300002 4284028169
-0.069300003 0.23298001 0.69300002 4283713830
-0.067783818 0.23230763 0.69100004 4285948484
-0.06646762 0.23230763 0.69100004 4288114522
-0.065057144 0.23197144 0.69000006 4288184176
-0.063742861 0.23197144 0.69000006 4288187009
-0.062428575 0.23197144 0.69000006 4288317330
-0.061114289 0.23197144 0.69000006 4288382089
-0.059713338 0.23163526 0.68900001 4288381824
-0.058400955 0.23163526 0.68900001 4288316547
-0.057088576 0.23163526 0.68900001 4288317318
-0.055776194 0.23163526 0.68900001 4288317065
-0.054305717 0.23096287 0.68700004 4288382092
-0.052997146 0.23096287 0.68700004 4288382358
-0.051688574 0.23096287 0.68700004 4288775585
-0.050380003 0.23096287 0.68700004 4289106586
-0.049000002 0.23062669 0.68600005 4289171348
-0.047693338 0.23062669 0.68600005 4289167466
-0.04638667 0.23062669 0.68600005 4285485120
-0.045080002 0.23062669 0.68600005 4281809970
-0.043645717 0.2299543 0.68400002 4283445540
-0.04234286 0.2299543 0.68400002 4285026641
-0.041040003 0.2299543 0.68400002 4285427839
-0.039853334 0.23062669 0.68600005 4285819248
-0.03854667 0.23062669 0.68600005 4285751137
-0.037294287 0.23096287 0.68700004 4285620841
-0.036090478 0.23163526 0.68900001 4286016113
-0.035030477 0.23331621 0.69400001 4286409829
-0.033708572 0.23331621 0.69400001 4286276442
-0.032433335 0.2336524 0.69500005 4286141776
-0.031199049 0.23432478 0.69700003 4285937477
-0.029914288 0.23466097 0.69800001 4285744981
-0.028666668 0.23533335 0.70000005 4285948005
-0.027723812 0.23869525 0.71000004 4286144091
-0.02648286 0.23970382 0.71300006 4285091666
-0.025124764 0.23970382 0.71300006 4283977040
-0.023800002 0.24004002 0.71400005 4284567631
-0.022502858 0.24071239 0.71600002 4285091896
-0.021168573 0.24104859 0.71700001 4285420066
-0.019802859 0.24104859 0.71700001 4285682740
-0.10316572 0.23937145 0.708 4285490269
-0.10181715 0.23937145 0.708 4285355855
-0.10032667 0.23903336 0.70700002 4285291607
-0.09898001 0.23903336 0.70700002 4285225054
-0.097357146 0.23835716 0.70500004 4285159269
-0.096014291 0.23835716 0.70500004 4285553003
-0.094537146 0.23801906 0.70400006 4285882985
-0.093196198 0.23801906 0.70400006 4286013798
-0.091724768 0.23768097 0.70300001 4286080871
-0.090128578 0.23700477 0.70100003 4286211943
-0.088793337 0.23700477 0.70100003 4286345829
-0.087458104 0.23700477 0.70100003 4286606691
-0.086122863 0.23700477 0.70100003 4286869106
-0.084666669 0.23666668 0.70000005 4286869376
-0.083333336 0.23666668 0.70000005 4286937729
-0.081765719 0.23599049 0.69800001 4287002241
-0.080320954 0.2356524 0.69700003 4287069566
-0.078993335 0.2356524 0.69700003 4287331195
-0.077442862 0.2349762 0.69500005 4287594889
-0.07611905 0.2349762 0.69500005 4287003031
-0.074687622 0.23463811 0.69400001 4286414170
-0.073365718 0.23463811 0.69400001 4285423388
-0.072043814 0.23463811 0.69400001 4284441103
-0.070620008 0.23430002 0.69300002 4285223169
-0.069300003 0.23430002 0.69300002 4285949508
-0.067783818 0.23362382 0.69100004 4287002502
-0.06646762 0.23362382 0.69100004 4288055173
-0.065151431 0.23362382 0.69100004 4288120452
-0.063742861 0.23328573 0.69000006 4288186500
-0.062428575 0.23328573 0.69000006 4288317060
-0.061114289 0.23328573 0.69000006 4288447359
-0.059713338 0.23294763 0.68900001 4288381562
-0.058400955 0.23294763 0.68900001 4288316285
-0.057088576 0.23294763 0.68900001 4288317056
-0.055776194 0.23294763 0.68900001 4288382598
-0.054463815 0.23294763 0.68900001 4288382603
-0.052997146 0.23227145 0.68700004 4288447641
-0.051688574 0.23227145 0.68700004 4288973734
-0.050380003 0.23227145 0.68700004 4289567391
-0.049000002 0.23193336 0.68600005 4288778904
-0.047693338 0.23193336 0.68600005 4287988577
-0.04638667 0.23193336 0.68600005 4284694057
-0.045080002 0.23193336 0.68600005 4281410616
-0.043645717 0.23125716 0.68400002 4283581255
-0.04234286 0.23125716 0.68400002 4285750887
-0.041040003 0.23125716 0.68400002 4285820807
-0.039853334 0.23193336 0.68600005 4285951353
-0.038602859 0.23227145 0.68700004 4285949035
-0.037402861 0.23294763 0.68900001 4285884521
-0.03614286 0.23328573 0.69000006 4286212454
-0.034980003 0.23430002 0.69300002 4286474336
-0.033757146 0.2349762 0.69500005 4286473561
-0.032526668 0.2356524 0.69700003 4286472281
-0.031243812 0.23599049 0.69800001 4286271833
-0.030000001 0.23666668 0.70000005 4286074991
-0.028707622 0.23700477 0.70100003 4285749893
-0.027723812 0.24004763 0.71000004 4285425000
-0.02648286 0.24106193 0.71300006 4284764234
-0.025124764 0.24106193 0.71300006 4284106316
-0.023800002 0.24140002 0.71400005 4284566862
-0.022534287 0.2424143 0.71700001 4285026115
-0.021168573 0.2424143 0.71700001 4285289272
-0.019802859 0.2424143 0.71700001 4285617472
-0.10480953 0.24140002 0.71000004 4285224791
-0.10302 0.24038002 0.70700002 4284107092
-0.10181715 0.24072002 0.708 4283839313
-0.10032667 0.24038002 0.70700002 4283581275
-0.09898001 0.24038002 0.70700002 4283383141
-0.097633339 0.24038002 0.70700002 4283188581
-0.096014291 0.23970002 0.70500004 4283775846
-0.094537146 0.23936002 0.70400006 4284371301
-0.093196198 0.23936002 0.70400006 4284567396
-0.091724768 0.23902002 0.70300001 4284766564
-0.09038572 0.23902002 0.70300001 4285027683
-0.088793337 0.23834002 0.70100003 4285227098
-0.087458104 0.23834002 0.70100003 4285488465
-0.086122863 0.23834002 0.70100003 4285685851
-0.084666669 0.23800002 0.70000005 4286012006
-0.083333336 0.23800002 0.70000005 4286342249
-0.082000002 0.23800002 0.70000005 4286538349
-0.080436192 0.23732002 0.69800001 4286737514
-0.078993335 0.23698002 0.69700003 4287198311
-0.077442862 0.23630002 0.69500005 4287591272
-0.07611905 0.23630002 0.69500005 4286212457
-0.074795246 0.23630002 0.69500005 4284767304
-0.073365718 0.23596002 0.69400001 4284626471
-0.072043814 0.23596002 0.69400001 4284503604
-0.070620008 0.23562002 0.69300002 4286342977
-0.069300003 0.23562002 0.69300002 4288181607
-0.067980006 0.23562002 0.69300002 4288121742
-0.066660002 0.23562002 0.69300002 4287989896
-0.065151431 0.23494002 0.69100004 4288055425
-0.063835241 0.23494002 0.69100004 4288120962
-0.062428575 0.23460002 0.69000006 4288317059
-0.061114289 0.23460002 0.69000006 4288512382
-0.059800003 0.23460002 0.69000006 4288446074
-0.058485717 0.23460002 0.69000006 4288316284
-0.057088576 0.23426002 0.68900001 4288382590
-0.055776194 0.23426002 0.68900001 4288382853
-0.054463815 0.23426002 0.68900001 4288448653
-0.053151432 0.23426002 0.68900001 4288513685
-0.051688574 0.23358001 0.68700004 4289235357
-0.050380003 0.23358001 0.68700004 4289960075
-0.049071431 0.23358001 0.68700004 4288388473
-0.047693338 0.23324001 0.68600005 4286799175
-0.04638667 0.23324001 0.68600005 4283892245
-0.045080002 0.23324001 0.68600005 4281021493
-0.043645717 0.23256001 0.68400002 4283718228
-0.04246667 0.23324001 0.68600005 4286410082
-0.041160002 0.23324001 0.68600005 4286283632
-0.039737146 0.23256001 0.68400002 4286081646
-0.038602859 0.23358001 0.68700004 4286143084
-0.037402861 0.23426002 0.68900001 4286145648
-0.03614286 0.23460002 0.69000006 4286343541
-0.034980003 0.23562002 0.69300002 4286539626
-0.033757146 0.23630002 0.69500005 4286670688
-0.032573335 0.23732002 0.69800001 4286800731
-0.031243812 0.23732002 0.69800001 4286602582
-0.030000001 0.23800002 0.70000005 4286404965
-0.028707622 0.23834002 0.70100003 4285551475
-0.027606668 0.24038002 0.70700002 4284699491
-0.02648286 0.24242002 0.71300006 4284499795
-0.025160002 0.24276002 0.71400005 4284236628
-0.023866668 0.24344002 0.71600002 4284566868
