# .PCD v0.7 - Point Cloud Data file format
VERSION 0.7
FIELDS x y z rgba
SIZE 4 4 4 4
TYPE F F F U
COUNT 1 1 1 1
WIDTH 1042
HEIGHT 1
VIEWPOINT 0 0 0 1 0 0 0
POINTS 1042
DATA ascii
-0.12326287 0.079849526 0.81400001 4289701536
-0.12171239 0.079849526 0.81400001 4289438885
-0.11986668 0.079653338 0.81200004 4289568169
-0.11832001 0.079653338 0.81200004 4289762984
-0.11648572 0.079457149 0.81000006 4289764519
-0.11465906 0.07926096 0.80800003 4289832102
-0.11312 0.07926096 0.80800003 4289831589
-0.11102858 0.078868575 0.80400002 4289831085
-0.10976953 0.079064764 0.80600005 4289765301
-0.10823429 0.079064764 0.80600005 4289700031
-0.10643429 0.078868575 0.80400002 4290028488
-0.10490286 0.078868575 0.80400002 4290422202
-0.10362858 0.079064764 0.80600005 4290096300
-0.10184 0.078868575 0.80400002 4289772679
-0.10030857 0.078868575 0.80400002 4287134561
-0.10111143 0.080732383 0.82300001 4284494416
-0.099543817 0.080732383 0.82300001 4284041023
-0.0979762 0.080732383 0.82300001 4283587655
-0.096408576 0.080732383 0.82300001 4284376910
-0.095071435 0.080928579 0.82500005 4285229894
-0.093273342 0.080732383 0.82300001 4285098046
-0.091705717 0.080732383 0.82300001 4284899909
-0.0901381 0.080732383 0.82300001 4284767820
-0.088570483 0.080732383 0.82300001 4284569138
-0.087002866 0.080732383 0.82300001 4283650583
-0.085435241 0.080732383 0.82300001 4282732577
-0.083867624 0.080732383 0.82300001 4282132010
-0.082300007 0.080732383 0.82300001 4281537568
-0.080732383 0.080732383 0.82300001 4281341462
-0.078972384 0.080536194 0.82100004 4281211412
-0.077408575 0.080536194 0.82100004 4281211410
-0.14925334 0.081200004 0.81200004 4286019436
-0.1482524 0.081500009 0.81500006 4285754223
-0.14670001 0.081500009 0.81500006 4285428846
-0.14514762 0.081500009 0.81500006 4285099885
-0.14394763 0.081700005 0.81700003 4284707176
-0.14239144 0.081700005 0.81700003 4284704098
-0.14083524 0.081700005 0.81700003 4284640357
-0.13927905 0.081700005 0.81700003 4284440937
-0.13772286 0.081700005 0.81700003 4284246368
-0.13583334 0.081500009 0.81500006 4284639320
-0.13428096 0.081500009 0.81500006 4285033544
-0.13272858 0.081500009 0.81500006 4285556537
-0.1311762 0.081500009 0.81500006 4286020446
-0.12962382 0.081500009 0.81500006 4288523140
-0.12807144 0.081500009 0.81500006 4290948502
-0.12651905 0.081500009 0.81500006 4290422952
-0.12481334 0.081400007 0.81400001 4289832357
-0.12326287 0.081400007 0.81400001 4289438114
-0.12141334 0.081200004 0.81200004 4288978853
-0.11957144 0.081000008 0.81000006 4289304489
-0.11773715 0.080800004 0.80800003 4289567910
-0.11591049 0.080600008 0.80600005 4289700516
-0.11409143 0.080400005 0.80400002 4289831589
-0.11256 0.080400005 0.80400002 4289765799
-0.11075239 0.080200002 0.80200005 4289699756
-0.10922477 0.080200002 0.80200005 4289502898
-0.10769715 0.080200002 0.80200005 4289306808
-0.10643429 0.080400005 0.80400002 4289700543
-0.10464191 0.080200002 0.80200005 4290029495
-0.10337143 0.080400005 0.80400002 4290425519
-0.10184 0.080400005 0.80400002 4290752412
-0.10005905 0.080200002 0.80200005 4288846473
-0.098777153 0.080400005 0.80400002 4286932822
-0.097245723 0.080400005 0.80400002 4284826659
-0.0979762 0.082300007 0.82300001 4282667575
-0.096408576 0.082300007 0.82300001 4283652683
-0.094840959 0.082300007 0.82300001 4284572480
-0.093046673 0.082100004 0.82100004 4284638261
-0.091482863 0.082100004 0.82100004 4284637499
-0.089919053 0.082100004 0.82100004 4284374338
-0.088355243 0.082100004 0.82100004 4284110380
-0.086791433 0.082100004 0.82100004 4283649303
-0.085227624 0.082100004 0.82100004 4283188513
-0.083663814 0.082100004 0.82100004 4282393644
-0.082100004 0.082100004 0.82100004 4281604892
-0.080536194 0.082100004 0.82100004 4281275404
-0.078972384 0.082100004 0.82100004 4280883214
-0.077408575 0.082100004 0.82100004 4281079057
-0.14888573 0.082542859 0.81000006 4285950545
-0.14770667 0.08274667 0.81200004 4285688910
-0.14652 0.08295048 0.81400001 4285491790
-0.14496954 0.08295048 0.81400001 4285099342
-0.14341906 0.08295048 0.81400001 4284705873
-0.14204286 0.083052389 0.81500006 4284574804
-0.14049049 0.083052389 0.81500006 4284510560
-0.1389381 0.083052389 0.81500006 4284311147
-0.13738573 0.083052389 0.81500006 4284114534
-0.13583334 0.083052389 0.81500006 4284244320
-0.13428096 0.083052389 0.81500006 4284377934
-0.13272858 0.083052389 0.81500006 4285424700
-0.1311762 0.083052389 0.81500006 4286543985
-0.12962382 0.083052389 0.81500006 4288716966
-0.12838572 0.083256193 0.81700003 4290948769
-0.12651905 0.083052389 0.81500006 4290422940
-0.12481334 0.08295048 0.81400001 4289831328
-0.12296001 0.08274667 0.81200004 4289503139
-0.12111429 0.082542859 0.81000006 4289175974
-0.1192762 0.082339056 0.80800003 4289372329
-0.11715429 0.081931435 0.80400002 4289569445
-0.11562286 0.081931435 0.80400002 4289634720
-0.11380763 0.081727624 0.80200005 4289634724
-0.11228 0.081727624 0.80200005 4289634728
-0.11020001 0.081320003 0.79800004 4289699244
-0.10895239 0.081523813 0.80000001 4289634223
-0.10742858 0.081523813 0.80000001 4289568946
-0.10590477 0.081523813 0.80000001 4289766069
-0.10438096 0.081523813 0.80000001 4290028723
-0.10311429 0.081727624 0.80200005 4290292913
-0.10158667 0.081727624 0.80200005 4290622641
-0.10005905 0.081727624 0.80200005 4289372848
-0.09828572 0.081523813 0.80000001 4288187483
-0.096761912 0.081523813 0.80000001 4285750790
-0.097738102 0.083663814 0.82100004 4283387687
-0.096174292 0.083663814 0.82100004 4284112200
-0.094610482 0.083663814 0.82100004 4284768826
-0.093046673 0.083663814 0.82100004 4284768812
-0.091482863 0.083663814 0.82100004 4284703282
-0.089919053 0.083663814 0.82100004 4284505143
-0.088355243 0.083663814 0.82100004 4284241703
-0.086791433 0.083663814 0.82100004 4283913239
-0.085020006 0.083460003 0.81900007 4283585314
-0.083460003 0.083460003 0.81900007 4282922797
-0.081900008 0.083460003 0.81900007 4282261271
-0.080340005 0.083460003 0.81900007 4281801473
-0.078587621 0.083256193 0.81700003 4281342728
-0.077031434 0.083256193 0.81700003 4281408015
-0.1508 0.084293336 0.81200004 4284311627
-0.14925334 0.084293336 0.81200004 4285819719
-0.14770667 0.084293336 0.81200004 4285689923
-0.14616001 0.084293336 0.81200004 4285558083
-0.14461334 0.084293336 0.81200004 4285100100
-0.14306667 0.084293336 0.81200004 4284640318
-0.14152001 0.084293336 0.81200004 4284509241
-0.14031811 0.084500961 0.81400001 4284376888
-0.13842668 0.084293336 0.81200004 4284177975
-0.13688001 0.084293336 0.81200004 4283914548
-0.13566667 0.084500961 0.81400001 4283845681
-0.1341162 0.084500961 0.81400001 4283714373
-0.13256572 0.084500961 0.81400001 4285351001
-0.1311762 0.08460477 0.81500006 4287005057
-0.12962382 0.08460477 0.81500006 4288982441
-0.12807144 0.08460477 0.81500006 4290948517
-0.12651905 0.08460477 0.81500006 4290422945
-0.12450667 0.084293336 0.81200004 4289831332
-0.12265715 0.084085718 0.81000006 4289632167
-0.12081525 0.0838781 0.80800003 4289372333
-0.11868572 0.083462864 0.80400002 4289504691
-0.11686286 0.083255246 0.80200005 4289569448
-0.11504763 0.083047621 0.80000001 4289503389
-0.11324001 0.082840003 0.79800004 4289438371
-0.11158001 0.082736194 0.79700005 4289569705
-0.11020001 0.082840003 0.79800004 4289634731
-0.10868001 0.082840003 0.79800004 4289700013
-0.10716001 0.082840003 0.79800004 4289765807
-0.10564001 0.082840003 0.79800004 4289897138
-0.10412001 0.082840003 0.79800004 4289963185
-0.10260001 0.082840003 0.79800004 4290226095
-0.10108001 0.082840003 0.79800004 4290424754
-0.099560007 0.082840003 0.79800004 4289900213
-0.098040007 0.082840003 0.79800004 4289367923
-0.096399054 0.082736194 0.79700005 4286732849
-0.094880961 0.082736194 0.79700005 4284111930
-0.09336286 0.082736194 0.79700005 4284574019
-0.094610482 0.085227624 0.82100004 4284966204
-0.092820004 0.085020006 0.81900007 4284899125
-0.091260009 0.085020006 0.81900007 4284769077
-0.089700006 0.085020006 0.81900007 4284569909
-0.088140003 0.085020006 0.81900007 4284373033
-0.086580008 0.085020006 0.81900007 4284176157
-0.085020006 0.085020006 0.81900007 4283913754
-0.083460003 0.085020006 0.81900007 4283450648
-0.081900008 0.085020006 0.81900007 4282920981
-0.080340005 0.085020006 0.81900007 4282392083
-0.078587621 0.084812388 0.81700003 4281802261
-0.07674858 0.084500961 0.81400001 4281735960
-0.074459054 0.083670482 0.80600005 4281671188
-0.072742864 0.083462864 0.80400002 4281802257
-0.1508 0.085840009 0.81200004 4283785537
-0.14925334 0.085840009 0.81200004 4284967484
-0.14770667 0.085840009 0.81200004 4284770359
-0.14616001 0.085840009 0.81200004 4284574521
-0.14461334 0.085840009 0.81200004 4284311098
-0.14306667 0.085840009 0.81200004 4284114732
-0.14152001 0.085840009 0.81200004 4283982109
-0.13997334 0.085840009 0.81200004 4283916816
-0.13842668 0.085840009 0.81200004 4283717891
-0.13688001 0.085840009 0.81200004 4283520002
-0.13533334 0.085840009 0.81200004 4282599169
-0.13378668 0.085840009 0.81200004 4281741883
-0.13256572 0.086051434 0.81400001 4284240757
-0.13101524 0.086051434 0.81400001 4286749584
-0.12946478 0.086051434 0.81400001 4288850347
-0.12791429 0.086051434 0.81400001 4290949544
-0.12605335 0.085840009 0.81200004 4290423205
-0.12420001 0.085628577 0.81000006 4289962920
-0.12205144 0.085205719 0.80600005 4289765546
-0.1199181 0.084782861 0.80200005 4289569971
-0.11809525 0.084571436 0.80000001 4289635516
-0.11613429 0.084254295 0.79700005 4289700523
-0.1146162 0.084254295 0.79700005 4289634969
-0.1130981 0.084254295 0.79700005 4289635234
-0.11158001 0.084254295 0.79700005 4289700778
-0.11006191 0.084254295 0.79700005 4289766314
-0.10854381 0.084254295 0.79700005 4289831594
-0.10702572 0.084254295 0.79700005 4289897389
-0.10550763 0.084254295 0.79700005 4290028207
-0.10398953 0.084254295 0.79700005 4290159022
-0.10247143 0.084254295 0.79700005 4290357421
-0.10095334 0.084254295 0.79700005 4290556340
-0.099435247 0.084254295 0.79700005 4289965242
-0.097917147 0.084254295 0.79700005 4289374603
-0.096399054 0.084254295 0.79700005 4286935643
-0.094880961 0.084254295 0.79700005 4284505421
-0.093480006 0.084360003 0.79800004 4284900926
-0.094380006 0.086580008 0.81900007 4285229886
-0.092820004 0.086580008 0.81900007 4285098301
-0.091037147 0.086368576 0.81700003 4285034808
-0.089700006 0.086580008 0.81900007 4284900658
-0.087924771 0.086368576 0.81700003 4284832043
-0.086368576 0.086368576 0.81700003 4284637475
-0.084812388 0.086368576 0.81700003 4284508179
-0.083256193 0.086368576 0.81700003 4284110338
-0.081700005 0.086368576 0.81700003 4283711251
-0.080143817 0.086368576 0.81700003 4282657572
-0.07839524 0.086157151 0.81500006 4281606690
-0.07674858 0.086051434 0.81400001 4281672736
-0.075198099 0.086051434 0.81400001 4281738265
-0.072742864 0.084994294 0.80400002 4281803537
-0.1508 0.087386675 0.81200004 4283325221
-0.14925334 0.087386675 0.81200004 4284047149
-0.14734286 0.087171435 0.81000006 4283783476
-0.14580001 0.087171435 0.81000006 4283522100
-0.14425716 0.087171435 0.81000006 4283585843
-0.14271429 0.087171435 0.81000006 4283586604
-0.14117144 0.087171435 0.81000006 4283519013
-0.13962857 0.087171435 0.81000006 4283388442
-0.13808572 0.087171435 0.81000006 4283256591
-0.13654287 0.087171435 0.81000006 4283059738
-0.13533334 0.087386675 0.81200004 4281419814
-0.13378668 0.087386675 0.81200004 4279776050
-0.13224001 0.087386675 0.81200004 4283120445
-0.13069335 0.087386675 0.81200004 4286479474
-0.12914668 0.087386675 0.81200004 4288719526
-0.12760001 0.087386675 0.81200004 4290882989
-0.12574287 0.087171435 0.81000006 4290488500
-0.12389334 0.086956196 0.80800003 4290029743
-0.12174858 0.086525723 0.80400002 4289897387
-0.11961906 0.086095244 0.80000001 4289766319
-0.11765239 0.085772388 0.79700005 4289831859
-0.11613429 0.085772388 0.79700005 4289831850
-0.1146162 0.085772388 0.79700005 4289831841
-0.1130981 0.085772388 0.79700005 4289766309
-0.11130001 0.085557148 0.79500002 4289831849
-0.10978572 0.085557148 0.79500002 4289897132
-0.10827143 0.085557148 0.79500002 4289962671
-0.10675715 0.085557148 0.79500002 4290027954
-0.10524286 0.085557148 0.79500002 4290159029
-0.10372858 0.085557148 0.79500002 4290290613
-0.10247143 0.085772388 0.79700005 4290488501
-0.10070001 0.085557148 0.79500002 4290621112
-0.099435247 0.085772388 0.79700005 4290029243
-0.097917147 0.085772388 0.79700005 4289369226
-0.096399054 0.085772388 0.79700005 4287129432
-0.094880961 0.085772388 0.79700005 4284900689
-0.093714289 0.086095244 0.80000001 4285229129
-0.093919054 0.087709531 0.81500006 4285491782
-0.092366673 0.087709531 0.81500006 4285359939
-0.090814292 0.087709531 0.81500006 4285231163
-0.089480959 0.087924771 0.81700003 4285231412
-0.087709531 0.087709531 0.81500006 4285229362
-0.086157151 0.087709531 0.81500006 4285164592
-0.084812388 0.087924771 0.81700003 4285033258
-0.083052389 0.087709531 0.81500006 4284771109
-0.081500009 0.087709531 0.81500006 4284502047
-0.079849526 0.087601908 0.81400001 4282985498
-0.078299053 0.087601908 0.81400001 4281411869
-0.076560006 0.087386675 0.81200004 4281609761
-0.07482858 0.087171435 0.81000006 4281739545
-0.072923817 0.086740956 0.80600005 4281804817
-0.14888573 0.088714294 0.81000006 4284242973
-0.14734286 0.088714294 0.81000006 4283914801
-0.14580001 0.088714294 0.81000006 4283651631
-0.14425716 0.088714294 0.81000006 4283585836
-0.14271429 0.088714294 0.81000006 4283454508
-0.14117144 0.088714294 0.81000006 4283321388
-0.13962857 0.088714294 0.81000006 4283188771
-0.13808572 0.088714294 0.81000006 4282927642
-0.13654287 0.088714294 0.81000006 4282731571
-0.13500001 0.088714294 0.81000006 4281285195
-0.13345715 0.088714294 0.81000006 4279899432
-0.13191429 0.088714294 0.81000006 4282595589
-0.13037144 0.088714294 0.81000006 4285296211
-0.12882859 0.088714294 0.81000006 4287730849
-0.12697144 0.088495247 0.80800003 4290163378
-0.12543239 0.088495247 0.80800003 4290293186
-0.12358668 0.0882762 0.80600005 4290490807
-0.12114286 0.087619051 0.80000001 4290226604
-0.11932001 0.087400004 0.79800004 4289962923
-0.11765239 0.087290481 0.79700005 4289963177
-0.11613429 0.087290481 0.79700005 4290028713
-0.11432858 0.087071434 0.79500002 4289897128
-0.1130981 0.087290481 0.79700005 4289831336
-0.11130001 0.087071434 0.79500002 4289962408
-0.10950953 0.086852387 0.79300004 4290027950
-0.10799906 0.086852387 0.79300004 4290158515
-0.10648858 0.086852387 0.79300004 4290223543
-0.1049781 0.086852387 0.79300004 4290421946
-0.10346763 0.086852387 0.79300004 4290617787
-0.10221429 0.087071434 0.79500002 4290685884
-0.10070001 0.087071434 0.79500002 4290755260
-0.09918572 0.087071434 0.79500002 4289832636
-0.097917147 0.087290481 0.79700005 4288977545
-0.096157148 0.087071434 0.79500002 4287068245
-0.094642863 0.087071434 0.79500002 4285228629
-0.09336286 0.087290481 0.79700005 4285491796
-0.093919054 0.089261912 0.81500006 4285754702
-0.092366673 0.089261912 0.81500006 4285558600
-0.090702862 0.089152388 0.81400001 4285429055
-0.089480959 0.089480959 0.81700003 4285493557
-0.087709531 0.089261912 0.81500006 4285623865
-0.086157151 0.089261912 0.81500006 4285427005
-0.08460477 0.089261912 0.81500006 4285295938
-0.08295048 0.089152388 0.81400001 4285164615
-0.081400007 0.089152388 0.81400001 4285098027
-0.079653338 0.088933341 0.81200004 4283252751
-0.078106672 0.088933341 0.81200004 4281477400
-0.076560006 0.088933341 0.81200004 4281542945
-0.074643813 0.088495247 0.80800003 4281674009
-0.072923817 0.0882762 0.80600005 4281738769
-0.071388572 0.0882762 0.80600005 4281803275
-0.14888573 0.090257145 0.81000006 4284374051
-0.14697906 0.090034291 0.80800003 4284111660
-0.14544001 0.090034291 0.80800003 4283782948
-0.14390096 0.090034291 0.80800003 4283585821
-0.14236191 0.090034291 0.80800003 4283322138
-0.14082287 0.090034291 0.80800003 4283122711
-0.13928382 0.090034291 0.80800003 4282926869
-0.13774477 0.090034291 0.80800003 4282664979
-0.13620572 0.090034291 0.80800003 4282402345
-0.13466668 0.090034291 0.80800003 4281220926
-0.13312763 0.090034291 0.80800003 4279970602
-0.13191429 0.090257145 0.81000006 4282000406
-0.13037144 0.090257145 0.81000006 4284046414
-0.12851049 0.090034291 0.80800003 4286743942
-0.12665716 0.089811437 0.80600005 4289369764
-0.12481143 0.089588575 0.80400002 4290160578
-0.12236001 0.088920005 0.79800004 4290949299
-0.12068858 0.088808574 0.79700005 4290555555
-0.11917049 0.088808574 0.79700005 4290161829
-0.11735715 0.088585719 0.79500002 4290160550
-0.11526 0.088140003 0.79100001 4290159784
-0.11375334 0.088140003 0.79100001 4290027690
-0.11253048 0.088362865 0.79300004 4289897127
-0.11074001 0.088140003 0.79100001 4290027428
-0.10950953 0.088362865 0.79300004 4290159785
-0.10772667 0.088140003 0.79100001 4290288815
-0.10648858 0.088362865 0.79300004 4290422710
-0.1049781 0.088362865 0.79300004 4290686910
-0.10346763 0.088362865 0.79300004 4290947774
-0.10195715 0.088362865 0.79300004 4290881470
-0.10044667 0.088362865 0.79300004 4290814890
-0.09918572 0.088585719 0.79500002 4289699223
-0.097671434 0.088585719 0.79500002 4288581244
-0.096157148 0.088585719 0.79500002 4287068257
-0.094642863 0.088585719 0.79500002 4285493843
-0.09336286 0.088808574 0.79700005 4285754694
-0.093342863 0.090257145 0.81000006 4286017861
-0.092026673 0.090480007 0.81200004 4285821764
-0.090480007 0.090480007 0.81200004 4285559347
-0.089152388 0.090702862 0.81400001 4285821218
-0.087601908 0.090702862 0.81400001 4286017329
-0.086051434 0.090702862 0.81400001 4285754944
-0.084500961 0.090702862 0.81400001 4285492550
-0.08274667 0.090480007 0.81200004 4285558349
-0.081200004 0.090480007 0.81200004 4285620780
-0.079653338 0.090480007 0.81200004 4283581195
-0.077721909 0.090034291 0.80800003 4281477390
-0.076182865 0.090034291 0.80800003 4281541649
-0.074643813 0.090034291 0.80800003 4281542157
-0.072923817 0.089811437 0.80600005 4281672969
-0.14697906 0.091573343 0.80800003 4284242726
-0.14544001 0.091573343 0.80800003 4284045082
-0.14354478 0.091346674 0.80600005 4283716622
-0.14200953 0.091346674 0.80600005 4283452680
-0.14047429 0.091346674 0.80600005 4283255297
-0.13928382 0.091573343 0.80800003 4283123719
-0.13740382 0.091346674 0.80600005 4282927116
-0.13586858 0.091346674 0.80600005 4282663711
-0.13433334 0.091346674 0.80600005 4281941553
-0.13279811 0.091346674 0.80600005 4281152300
-0.13158858 0.091573343 0.80800003 4282530598
-0.13004953 0.091573343 0.80800003 4283914569
-0.12819239 0.091346674 0.80600005 4285361259
-0.12634286 0.091120005 0.80400002 4286740887
-0.12419049 0.090666674 0.80000001 4288189378
-0.12220667 0.090326674 0.79700005 4289575086
-0.12038572 0.090100005 0.79500002 4289966234
-0.11887144 0.090100005 0.79500002 4290361503
-0.11706191 0.089873336 0.79300004 4290490019
-0.11526 0.089646675 0.79100001 4290552744
-0.11375334 0.089646675 0.79100001 4290421932
-0.11196286 0.089420006 0.78900003 4290292134
-0.11046001 0.089420006 0.78900003 4290489503
-0.10895715 0.089420006 0.78900003 4290753189
-0.10772667 0.089646675 0.79100001 4290751146
-0.10622001 0.089646675 0.79100001 4290753462
-0.1049781 0.089873336 0.79300004 4290425025
-0.10346763 0.089873336 0.79300004 4290163392
-0.10195715 0.089873336 0.79300004 4289894591
-0.10044667 0.089873336 0.79300004 4289629593
-0.0989362 0.089873336 0.79300004 4289106034
-0.097671434 0.090100005 0.79500002 4288579951
-0.096157148 0.090100005 0.79500002 4287135340
-0.094642863 0.090100005 0.79500002 4285758546
-0.09336286 0.090326674 0.79700005 4286018872
-0.091960005 0.090440005 0.79800004 4286281020
-0.091573343 0.091573343 0.80800003 4286018112
-0.090034291 0.091573343 0.80800003 4285820968
-0.088495247 0.091573343 0.80800003 4285886735
-0.086956196 0.091573343 0.80800003 4285952041
-0.085417151 0.091573343 0.80800003 4285689411
-0.0838781 0.091573343 0.80800003 4285492043
-0.082339056 0.091573343 0.80800003 4285557842
-0.080800004 0.091573343 0.80800003 4285624108
-0.07926096 0.091573343 0.80800003 4283646982
-0.077529527 0.091346674 0.80600005 4281668100
-0.07599429 0.091346674 0.80600005 4281736193
-0.14544001 0.093112387 0.80800003 4284307990
-0.14354478 0.092881911 0.80600005 4283914256
-0.14200953 0.092881911 0.80600005 4283519497
-0.14047429 0.092881911 0.80600005 4283453187
-0.13893905 0.092881911 0.80600005 4283321350
-0.13740382 0.092881911 0.80600005 4283124489
-0.13586858 0.092881911 0.80600005 4282926869
-0.13433334 0.092881911 0.80600005 4282663713
-0.13279811 0.092881911 0.80600005 4282334493
-0.13126287 0.092881911 0.80600005 4283054872
-0.12972763 0.092881911 0.80600005 4283779898
-0.12819239 0.092881911 0.80600005 4283979612
-0.12602858 0.092420958 0.80200005 4284115061
-0.12419049 0.092190482 0.80000001 4286149775
-0.12220667 0.091844767 0.79700005 4288187792
-0.12038572 0.091614291 0.79500002 4289372561
-0.11857239 0.091383815 0.79300004 4290554014
-0.11676668 0.091153339 0.79100001 4290753708
-0.11496858 0.090922862 0.78900003 4290946220
-0.11346572 0.090922862 0.78900003 4290815405
-0.11196286 0.090922862 0.78900003 4290620069
-0.11032001 0.090807624 0.78800005 4290950302
-0.10881905 0.090807624 0.78800005 4291276196
-0.10745429 0.090922862 0.78900003 4291208873
-0.10595144 0.090922862 0.78900003 4291078051
-0.10444858 0.090922862 0.78900003 4290227101
-0.10294572 0.090922862 0.78900003 4289302946
-0.10144287 0.090922862 0.78900003 4288838568
-0.10019334 0.091153339 0.79100001 4288382872
-0.098686673 0.091153339 0.79100001 4288514952
-0.097425722 0.091383815 0.79300004 4288579447
-0.095915243 0.091383815 0.79300004 4287265382
-0.094404764 0.091383815 0.79300004 4285953877
-0.092894293 0.091383815 0.79300004 4286216004
-0.091960005 0.091960005 0.79800004 4286477129
-0.091346674 0.092881911 0.80600005 4286280015
-0.089811437 0.092881911 0.80600005 4286017854
-0.0882762 0.092881911 0.80600005 4285952557
-0.086740956 0.092881911 0.80600005 4285820982
-0.085205719 0.092881911 0.80600005 4285624127
-0.083670482 0.092881911 0.80600005 4285426242
-0.082135245 0.092881911 0.80600005 4285556294
-0.080600008 0.092881911 0.80600005 4285621295
-0.079064764 0.092881911 0.80600005 4283714840
-0.077529527 0.092881911 0.80600005 4281805842
-0.07599429 0.092881911 0.80600005 4281931277
-0.14544001 0.094651438 0.80800003 4284045585
-0.14283238 0.09394858 0.80200005 4283717394
-0.14130478 0.09394858 0.80200005 4283454219
-0.14012572 0.094182864 0.80400002 4283387908
-0.1385943 0.094182864 0.80400002 4283255813
-0.13706286 0.094182864 0.80400002 4282993413
-0.13553144 0.094182864 0.80400002 4282665483
-0.134 0.094182864 0.80400002 4282468113
-0.13246858 0.094182864 0.80400002 4282270734
-0.13061143 0.09394858 0.80200005 4282662666
-0.12908381 0.09394858 0.80200005 4283122219
-0.1275562 0.09394858 0.80200005 4283846988
-0.12540001 0.093480006 0.79800004 4284570196
-0.12372477 0.09336286 0.79700005 4285620828
-0.12190001 0.093128577 0.79500002 4286735730
-0.12038572 0.093128577 0.79500002 4287461768
-0.11857239 0.092894293 0.79300004 4288254366
-0.11676668 0.092660002 0.79100001 4288516276
-0.11496858 0.092425719 0.78900003 4288779441
-0.11332192 0.092308581 0.78800005 4288779181
-0.11182096 0.092308581 0.78800005 4288849573
-0.11004001 0.09207429 0.78600001 4289108893
-0.10854287 0.09207429 0.78600001 4289308579
-0.10704572 0.09207429 0.78600001 4289303208
-0.10581715 0.092308581 0.78800005 4289238672
-0.10444858 0.092425719 0.78900003 4288840312
-0.10294572 0.092425719 0.78900003 4288376196
-0.10144287 0.092425719 0.78900003 4288511376
-0.099940009 0.092425719 0.78900003 4288645015
-0.098686673 0.092660002 0.79100001 4287924126
-0.097180009 0.092660002 0.79100001 4287139199
-0.095673338 0.092660002 0.79100001 4286544480
-0.094404764 0.092894293 0.79300004 4285952088
-0.093128577 0.093128577 0.79500002 4286083663
-0.091960005 0.093480006 0.79800004 4286279510
-0.091120005 0.094182864 0.80400002 4286148957
-0.089811437 0.094417147 0.80600005 4286018132
-0.0882762 0.094417147 0.80600005 4285952074
-0.086740956 0.094417147 0.80600005 4285820994
-0.085205719 0.094417147 0.80600005 4285688890
-0.083670482 0.094417147 0.80600005 4285556538
-0.082135245 0.094417147 0.80600005 4285557050
-0.080600008 0.094417147 0.80600005 4285558322
-0.078868575 0.094182864 0.80400002 4283716394
-0.077337146 0.094182864 0.80400002 4281874721
-0.075805716 0.094182864 0.80400002 4281672472
-0.074274294 0.094182864 0.80400002 4281474321
-0.14400001 0.095238104 0.80000001 4283717927
-0.14283238 0.095476195 0.80200005 4283586333
-0.14095239 0.095238104 0.80000001 4283388947
-0.13977715 0.095476195 0.80200005 4283322633
-0.13824953 0.095476195 0.80200005 4283190790
-0.13672191 0.095476195 0.80200005 4282797059
-0.1351943 0.095476195 0.80200005 4282403338
-0.13366668 0.095476195 0.80200005 4282272273
-0.13213906 0.095476195 0.80200005 4282139158
-0.13061143 0.095476195 0.80200005 4282267931
-0.12844001 0.095000006 0.79800004 4282401076
-0.12692001 0.095000006 0.79800004 4283715405
-0.12540001 0.095000006 0.79800004 4285027153
-0.12372477 0.094880961 0.79700005 4285158229
-0.12220667 0.094880961 0.79700005 4285225312
-0.12038572 0.094642863 0.79500002 4285549931
-0.11857239 0.094404764 0.79300004 4285884791
-0.11676668 0.094166674 0.79100001 4286212228
-0.11496858 0.093928576 0.78900003 4286542462
-0.11332192 0.09380953 0.78800005 4286803320
-0.11182096 0.09380953 0.78800005 4287068792
-0.11032001 0.09380953 0.78800005 4287196281
-0.10854287 0.093571432 0.78600001 4287330436
-0.10704572 0.093571432 0.78600001 4287390864
-0.10581715 0.09380953 0.78800005 4287393929
-0.10444858 0.093928576 0.78900003 4287453314
-0.10281525 0.09380953 0.78800005 4287460489
-0.10144287 0.093928576 0.78900003 4288185999
-0.099940009 0.093928576 0.78900003 4288907645
-0.098437153 0.093928576 0.78900003 4287331692
-0.097180009 0.094166674 0.79100001 4285693025
-0.095673338 0.094166674 0.79100001 4285821527
-0.094166674 0.094166674 0.79100001 4285886543
-0.093128577 0.094642863 0.79500002 4285952072
-0.091960005 0.095000006 0.79800004 4286017358
-0.091120005 0.095714293 0.80400002 4286017621
-0.089588575 0.095714293 0.80400002 4286017101
-0.0882762 0.095952384 0.80600005 4285951046
-0.086740956 0.095952384 0.80600005 4285819966
-0.085205719 0.095952384 0.80600005 4285754166
-0.083670482 0.095952384 0.80600005 4285688116
-0.082135245 0.095952384 0.80600005 4285556531
-0.080600008 0.095952384 0.80600005 4285424687
-0.078868575 0.095714293 0.80400002 4283652138
-0.077337146 0.095714293 0.80400002 4281877791
-0.075617149 0.095476195 0.80200005 4281409555
-0.074089527 0.095476195 0.80200005 4280949521
-0.072561912 0.095476195 0.80200005 4281538574
-0.066782862 0.095952384 0.80600005 4281932322
-0.14400001 0.096761912 0.80000001 4283782717
-0.14212 0.096520007 0.79800004 4283586087
-0.14060001 0.096520007 0.79800004 4283388955
-0.13908 0.096520007 0.79800004 4283191566
-0.13756001 0.096520007 0.79800004 4282928648
-0.13552858 0.096157148 0.79500002 4282403329
-0.13435143 0.096399054 0.79700005 4281943817
-0.13283335 0.096399054 0.79700005 4281878033
-0.13131525 0.096399054 0.79700005 4281876511
-0.12979715 0.096399054 0.79700005 4281941036
-0.12827906 0.096399054 0.79700005 4282071869
-0.12676096 0.096399054 0.79700005 4283188302
-0.12524286 0.096399054 0.79700005 4284305742
-0.12372477 0.096399054 0.79700005 4285028941
-0.12190001 0.096157148 0.79500002 4285816141
-0.12038572 0.096157148 0.79500002 4286013005
-0.11857239 0.095915243 0.79300004 4286209105
-0.11676668 0.095673338 0.79100001 4286407508
-0.11496858 0.095431432 0.78900003 4286603339
-0.11332192 0.095310479 0.78800005 4286999618
-0.11182096 0.095310479 0.78800005 4287391819
-0.11032001 0.095310479 0.78800005 4287590228
-0.10854287 0.095068574 0.78600001 4287785574
-0.10704572 0.095068574 0.78600001 4287917943
-0.10554858 0.095068574 0.78600001 4288048770
-0.1043162 0.095310479 0.78800005 4287984780
-0.10281525 0.095310479 0.78800005 4287923853
-0.10144287 0.095431432 0.78900003 4287465102
-0.099940009 0.095431432 0.78900003 4287076708
-0.098437153 0.095431432 0.78900003 4286348857
-0.096934289 0.095431432 0.78900003 4285625412
-0.095673338 0.095673338 0.79100001 4285624142
-0.094404764 0.095915243 0.79300004 4285623623
-0.093128577 0.096157148 0.79500002 4285558080
-0.091960005 0.096520007 0.79800004 4285426759
-0.091120005 0.097245723 0.80400002 4285557581
-0.089588575 0.097245723 0.80400002 4285753671
-0.088057145 0.097245723 0.80400002 4285886017
-0.086525723 0.097245723 0.80400002 4286081081
-0.084994294 0.097245723 0.80400002 4286083121
-0.083462864 0.097245723 0.80400002 4286081839
-0.081931435 0.097245723 0.80400002 4285951532
-0.080400005 0.097245723 0.80400002 4285817643
-0.078868575 0.097245723 0.80400002 4284834858
-0.077144764 0.097003818 0.80200005 4283851036
-0.075617149 0.097003818 0.80200005 4282463502
-0.074089527 0.097003818 0.80200005 4281079312
-0.072561912 0.097003818 0.80200005 4281604882
-0.07103429 0.097003818 0.80200005 4282195998
-0.069853336 0.097487628 0.80600005 4282063913
-0.068318099 0.097487628 0.80600005 4281866278
-0.066782862 0.097487628 0.80600005 4281866530
-0.14158572 0.097671434 0.79500002 4283651623
-0.14007144 0.097671434 0.79500002 4283388962
-0.13890572 0.097917147 0.79700005 4283060509
-0.13738763 0.097917147 0.79700005 4282666255
-0.13552858 0.097671434 0.79500002 4282074882
-0.13401429 0.097671434 0.79500002 4281419269
-0.13250001 0.097671434 0.79500002 4281485321
-0.13131525 0.097917147 0.79700005 4281549075
-0.12979715 0.097917147 0.79700005 4281678366
-0.12827906 0.097917147 0.79700005 4281742895
-0.12676096 0.097917147 0.79700005 4282660161
-0.12524286 0.097917147 0.79700005 4283518538
-0.12341429 0.097671434 0.79500002 4284966227
-0.12190001 0.097671434 0.79500002 4286408782
-0.12008286 0.097425722 0.79300004 4286476617
-0.11857239 0.097425722 0.79300004 4286540115
-0.11676668 0.097180009 0.79100001 4286605405
-0.11496858 0.096934289 0.78900003 4286672984
-0.11346572 0.096934289 0.78900003 4287199571
-0.11196286 0.096934289 0.78900003 4287657818
-0.11032001 0.096811436 0.78800005 4287987041
-0.10854287 0.096565723 0.78600001 4288248425
-0.1073181 0.096811436 0.78800005 4288446577
-0.10581715 0.096811436 0.78800005 4288642425
-0.1043162 0.096811436 0.78800005 4288512898
-0.10281525 0.096811436 0.78800005 4288380276
-0.10131429 0.096811436 0.78800005 4286805094
-0.099940009 0.096934289 0.78900003 4285167445
-0.098437153 0.096934289 0.78900003 4285361475
-0.097180009 0.097180009 0.79100001 4285492806
-0.095673338 0.097180009 0.79100001 4285426250
-0.094404764 0.097425722 0.79300004 4285361212
-0.093128577 0.097671434 0.79500002 4285098543
-0.091960005 0.098040007 0.79800004 4284836416
-0.090666674 0.09828572 0.80000001 4285162834
-0.089588575 0.098777153 0.80400002 4285428049
-0.088057145 0.098777153 0.80400002 4285889105
-0.086525723 0.098777153 0.80400002 4286282838
-0.084994294 0.098777153 0.80400002 4286349915
-0.083462864 0.098777153 0.80400002 4286415449
-0.081931435 0.098777153 0.80400002 4286350168
-0.080400005 0.098777153 0.80400002 4286217531
-0.078868575 0.098777153 0.80400002 4286018335
-0.077144764 0.098531432 0.80200005 4285750818
-0.075428575 0.09828572 0.80000001 4283448101
-0.073904768 0.09828572 0.80000001 4281148448
-0.07238096 0.09828572 0.80000001 4281736731
-0.071388572 0.099022865 0.80600005 4282261018
-0.069853336 0.099022865 0.80600005 4281998618
-0.068318099 0.099022865 0.80600005 4281735196
-0.066782862 0.099022865 0.80600005 4281865759
-0.14158572 0.09918572 0.79500002 4283585575
-0.14007144 0.09918572 0.79500002 4283192106
-0.13890572 0.099435247 0.79700005 4282798124
-0.13704287 0.09918572 0.79500002 4282469911
-0.13552858 0.09918572 0.79500002 4282140162
-0.13401429 0.09918572 0.79500002 4281811458
-0.13250001 0.09918572 0.79500002 4282270977
-0.13098572 0.09918572 0.79500002 4282794760
-0.12947144 0.09918572 0.79500002 4283252751
-0.12795715 0.09918572 0.79500002 4283772193
-0.12644286 0.09918572 0.79500002 4284433715
-0.12492858 0.09918572 0.79500002 4285090886
-0.12341429 0.09918572 0.79500002 4286014808
-0.12190001 0.09918572 0.79500002 4286999887
-0.12008286 0.0989362 0.79300004 4286803525
-0.11857239 0.0989362 0.79300004 4286672982
-0.11676668 0.098686673 0.79100001 4286409318
-0.11526 0.098686673 0.79100001 4286217573
-0.11346572 0.098437153 0.78900003 4286477412
-0.11196286 0.098437153 0.78900003 4286741865
-0.11032001 0.098312385 0.78800005 4286806382
-0.10881905 0.098312385 0.78800005 4286939500
-0.1073181 0.098312385 0.78800005 4287855722
-0.10581715 0.098312385 0.78800005 4288709233
-0.1043162 0.098312385 0.78800005 4287988600
-0.10281525 0.098312385 0.78800005 4287199323
-0.10131429 0.098312385 0.78800005 4286016318
-0.099940009 0.098437153 0.78900003 4284834118
-0.098437153 0.098437153 0.78900003 4285098573
-0.097180009 0.098686673 0.79100001 4285427017
-0.095915243 0.0989362 0.79300004 4285624133
-0.094404764 0.0989362 0.79300004 4285820722
-0.093128577 0.09918572 0.79500002 4285754910
-0.091960005 0.099560007 0.79800004 4285754170
-0.090440005 0.099560007 0.79800004 4286214998
-0.089365721 0.10005905 0.80200005 4286676059
-0.088057145 0.10030857 0.80400002 4286874976
-0.086310484 0.10005905 0.80200005 4287138930
-0.084994294 0.10030857 0.80400002 4286942340
-0.083462864 0.10030857 0.80400002 4286748804
-0.081931435 0.10030857 0.80400002 4286549124
-0.080200002 0.10005905 0.80200005 4286421836
-0.078672387 0.10005905 0.80200005 4285626899
-0.076952383 0.099809527 0.80000001 4284835879
-0.075428575 0.099809527 0.80000001 4282924347
-0.073904768 0.099809527 0.80000001 4281016112
-0.07238096 0.099809527 0.80000001 4281540644
-0.070857145 0.099809527 0.80000001 4282063639
-0.069333337 0.099809527 0.80000001 4281931786
-0.068318099 0.1005581 0.80600005 4281865235
-0.066782862 0.1005581 0.80600005 4282127132
-0.065085717 0.10030857 0.80400002 4282454299
-0.14310001 0.10070001 0.79500002 4284044060
-0.14158572 0.10070001 0.79500002 4283518740
-0.14007144 0.10070001 0.79500002 4282929182
-0.13890572 0.10095334 0.79700005 4282600745
-0.13704287 0.10070001 0.79500002 4282272297
-0.13552858 0.10070001 0.79500002 4282203945
-0.13367715 0.10044667 0.79300004 4282141230
-0.13250001 0.10070001 0.79500002 4283123508
-0.13098572 0.10070001 0.79500002 4284044081
-0.12947144 0.10070001 0.79500002 4284897070
-0.12795715 0.10070001 0.79500002 4285750594
-0.12644286 0.10070001 0.79500002 4286211415
-0.12492858 0.10070001 0.79500002 4286671968
-0.12341429 0.10070001 0.79500002 4287133034
-0.12190001 0.10070001 0.79500002 4287526757
-0.12038572 0.10070001 0.79500002 4287130464
-0.11857239 0.10044667 0.79300004 4286736473
-0.11706191 0.10044667 0.79300004 4286272337
-0.11526 0.10019334 0.79100001 4285750864
-0.11375334 0.10019334 0.79100001 4285750095
-0.11196286 0.099940009 0.78900003 4285752666
-0.11046001 0.099940009 0.78900003 4285687653
-0.10881905 0.099813342 0.78800005 4285623408
-0.1073181 0.099813342 0.78800005 4287196028
-0.10581715 0.099813342 0.78800005 4288776073
-0.1043162 0.099813342 0.78800005 4287401366
-0.10294572 0.099940009 0.78900003 4286019435
-0.10144287 0.099940009 0.78900003 4285226816
-0.10019334 0.10019334 0.79100001 4284441409
-0.098686673 0.10019334 0.79100001 4284902979
-0.097425722 0.10044667 0.79300004 4285296972
-0.095915243 0.10044667 0.79300004 4285757014
-0.094642863 0.10070001 0.79500002 4286214983
-0.093128577 0.10070001 0.79500002 4286477113
-0.091960005 0.10108001 0.79800004 4286674503
-0.090440005 0.10108001 0.79800004 4287266390
-0.089142866 0.10133334 0.80000001 4287857747
-0.087838098 0.10158667 0.80200005 4287927120
-0.086310484 0.10158667 0.80200005 4287923048
-0.084571436 0.10133334 0.80000001 4287466368
-0.083255246 0.10158667 0.80200005 4287004269
-0.081727624 0.10158667 0.80200005 4286806361
-0.080200002 0.10158667 0.80200005 4286544178
-0.078476198 0.10133334 0.80000001 4285231114
-0.076952383 0.10133334 0.80000001 4283847968
-0.075428575 0.10133334 0.80000001 4282331702
-0.073720008 0.10108001 0.79800004 4280822060
-0.072200008 0.10108001 0.79800004 4281345827
-0.070680007 0.10108001 0.79800004 4281801748
-0.069680005 0.10184 0.80400002 4281931014
-0.068148576 0.10184 0.80400002 4281996558
-0.066617146 0.10184 0.80400002 4282454039
-0.065085717 0.10184 0.80400002 4282847764
-0.14310001 0.10221429 0.79500002 4284371463
-0.14122954 0.10195715 0.79300004 4284439297
-0.14007144 0.10221429 0.79500002 4284567571
-0.13855715 0.10221429 0.79500002 4284634917
-0.13704287 0.10221429 0.79500002 4284763450
-0.13518763 0.10195715 0.79300004 4284897871
-0.13367715 0.10195715 0.79300004 4285096283
-0.13216667 0.10195715 0.79300004 4285621863
-0.1306562 0.10195715 0.79300004 4286147162
-0.12914573 0.10195715 0.79300004 4286608717
-0.12763524 0.10195715 0.79300004 4287138148
-0.12612477 0.10195715 0.79300004 4287463290
-0.12492858 0.10221429 0.79500002 4287794043
-0.12341429 0.10221429 0.79500002 4287858555
-0.12190001 0.10221429 0.79500002 4287925627
-0.12008286 0.10195715 0.79300004 4287725435
-0.11857239 0.10195715 0.79300004 4287525724
-0.11706191 0.10195715 0.79300004 4286275900
-0.11526 0.10170001 0.79100001 4285025851
-0.11375334 0.10170001 0.79100001 4284831034
-0.11224668 0.10170001 0.79100001 4284699979
-0.11046001 0.10144287 0.78900003 4284373851
-0.10895715 0.10144287 0.78900003 4284111732
-0.10745429 0.10144287 0.78900003 4285888141
-0.10595144 0.10144287 0.78900003 4287734432
-0.10444858 0.10144287 0.78900003 4286744243
-0.10294572 0.10144287 0.78900003 4285757819
-0.10170001 0.10170001 0.79100001 4285031234
-0.10044667 0.10195715 0.79300004 4284374333
-0.0989362 0.10195715 0.79300004 4284572984
-0.097425722 0.10195715 0.79300004 4284772944
-0.096157148 0.10221429 0.79500002 4284836967
-0.094642863 0.10221429 0.79500002 4284969821
-0.09336286 0.10247143 0.79700005 4285034067
-0.091960005 0.10260001 0.79800004 4285102676
-0.090666674 0.10285715 0.80000001 4285428053
-0.089142866 0.10285715 0.80000001 4285825867
-0.087619051 0.10285715 0.80000001 4285690688
-0.086095244 0.10285715 0.80000001 4285621086
-0.084571436 0.10285715 0.80000001 4285491068
-0.083047621 0.10285715 0.80000001 4285356629
-0.081523813 0.10285715 0.80000001 4285227310
-0.080000006 0.10285715 0.80000001 4285095960
-0.078476198 0.10285715 0.80000001 4284372993
-0.076952383 0.10285715 0.80000001 4283648537
-0.075428575 0.10285715 0.80000001 4282529840
-0.073904768 0.10285715 0.80000001 4281477673
-0.07238096 0.10285715 0.80000001 4281672482
-0.070857145 0.10285715 0.80000001 4281932306
-0.069506668 0.10311429 0.80200005 4281932033
-0.068148576 0.10337143 0.80400002 4281867017
-0.066617146 0.10337143 0.80400002 4282193681
-0.14122954 0.10346763 0.79300004 4285430838
-0.14007144 0.10372858 0.79500002 4286148415
-0.13855715 0.10372858 0.79500002 4286739016
-0.1366981 0.10346763 0.79300004 4287261781
-0.13518763 0.10346763 0.79300004 4287659107
-0.13334002 0.10320667 0.79100001 4287985520
-0.13183334 0.10320667 0.79100001 4288120189
-0.13032667 0.10320667 0.79100001 4288184445
-0.12882 0.10320667 0.79100001 4288383101
-0.12763524 0.10346763 0.79300004 4288514683
-0.12580667 0.10320667 0.79100001 4288709241
-0.12461429 0.10346763 0.79300004 4288842876
-0.12310382 0.10346763 0.79300004 4288581758
-0.12159334 0.10346763 0.79300004 4288319108
-0.12008286 0.10346763 0.79300004 4288319626
-0.11857239 0.10346763 0.79300004 4288249699
-0.11706191 0.10346763 0.79300004 4286279227
-0.11526 0.10320667 0.79100001 4284243008
-0.11375334 0.10320667 0.79100001 4283913798
-0.11224668 0.10320667 0.79100001 4283585871
-0.11046001 0.10294572 0.78900003 4283061593
-0.10895715 0.10294572 0.78900003 4282538854
-0.10745429 0.10294572 0.78900003 4284575603
-0.10595144 0.10294572 0.78900003 4286608246
-0.10471334 0.10320667 0.79100001 4286017145
-0.10320667 0.10320667 0.79100001 4285425241
-0.10170001 0.10320667 0.79100001 4284831802
-0.10044667 0.10346763 0.79300004 4284241465
-0.09918572 0.10372858 0.79500002 4284241720
-0.097671434 0.10372858 0.79500002 4284177464
-0.096157148 0.10372858 0.79500002 4283913272
-0.094642863 0.10372858 0.79500002 4283653175
-0.093128577 0.10372858 0.79500002 4283586870
-0.091960005 0.10412001 0.79800004 4283456304
-0.090440005 0.10412001 0.79800004 4283583019
-0.088920005 0.10412001 0.79800004 4283718705
-0.087619051 0.10438096 0.80000001 4283519800
-0.086095244 0.10438096 0.80000001 4283325006
-0.084360003 0.10412001 0.79800004 4283520101
-0.083047621 0.10438096 0.80000001 4283717455
-0.081320003 0.10412001 0.79800004 4283715641
-0.080000006 0.10438096 0.80000001 4283650083
-0.078280002 0.10412001 0.79800004 4283516685
-0.076952383 0.10438096 0.80000001 4283385622
-0.075240009 0.10412001 0.79800004 4282726687
-0.073720008 0.10412001 0.79800004 4282067487
-0.072200008 0.10412001 0.79800004 4282064671
-0.070680007 0.10412001 0.79800004 4282063892
-0.13971905 0.1049781 0.79300004 4287331947
-0.13820858 0.1049781 0.79300004 4287460202
-0.1366981 0.1049781 0.79300004 4287591281
-0.13484667 0.10471334 0.79100001 4287656055
-0.13334002 0.10471334 0.79100001 4287724165
-0.13150001 0.10444858 0.78900003 4287791250
-0.12999715 0.10444858 0.78900003 4287858592
-0.12849429 0.10444858 0.78900003 4288054957
-0.12731335 0.10471334 0.79100001 4288255379
-0.12548858 0.10444858 0.78900003 4288186488
-0.12430001 0.10471334 0.79100001 4288188797
-0.12279334 0.10471334 0.79100001 4287989121
-0.12159334 0.1049781 0.79300004 4287793549
-0.11978001 0.10471334 0.79100001 4287923609
-0.11857239 0.1049781 0.79300004 4288055914
-0.11676668 0.10471334 0.79100001 4285754938
-0.11526 0.10471334 0.79100001 4283522374
-0.11375334 0.10471334 0.79100001 4283389521
-0.11224668 0.10471334 0.79100001 4283323220
-0.11046001 0.10444858 0.78900003 4282667351
-0.10895715 0.10444858 0.78900003 4282076248
-0.10745429 0.10444858 0.78900003 4283192921
-0.10622001 0.10471334 0.79100001 4284239180
-0.1049781 0.1049781 0.79300004 4284044606
-0.10346763 0.1049781 0.79300004 4283914040
-0.10195715 0.1049781 0.79300004 4283781425
-0.10070001 0.10524286 0.79500002 4283714612
-0.09918572 0.10524286 0.79500002 4283715895
-0.097671434 0.10524286 0.79500002 4283781920
-0.096157148 0.10524286 0.79500002 4283585033
-0.094642863 0.10524286 0.79500002 4283452945
-0.093128577 0.10524286 0.79500002 4283585304
-0.091960005 0.10564001 0.79800004 4283715597
-0.090440005 0.10564001 0.79800004 4283977985
-0.088920005 0.10564001 0.79800004 4284239896
-0.087400004 0.10564001 0.79800004 4284242991
-0.085880004 0.10564001 0.79800004 4284308543
-0.084360003 0.10564001 0.79800004 4284243022
-0.082840003 0.10564001 0.79800004 4284243017
-0.081320003 0.10564001 0.79800004 4284373059
-0.079800002 0.10564001 0.79800004 4284500526
-0.078280002 0.10564001 0.79800004 4283976472
-0.076760001 0.10564001 0.79800004 4283518995
-0.075240009 0.10564001 0.79800004 4282857486
-0.073720008 0.10564001 0.79800004 4282197781
-0.072200008 0.10564001 0.79800004 4282130972
-0.13936667 0.10622001 0.79100001 4288506695
-0.13786002 0.10622001 0.79100001 4288178515
-0.13635334 0.10622001 0.79100001 4287848786
-0.13484667 0.10622001 0.79100001 4287649106
-0.13300286 0.10595144 0.78900003 4287391841
-0.13150001 0.10595144 0.78900003 4287462001
-0.12999715 0.10595144 0.78900003 4287460730
-0.12833144 0.10581715 0.78800005 4287722627
-0.12699144 0.10595144 0.78900003 4287920242
-0.12548858 0.10595144 0.78900003 4287723106
-0.12398572 0.10595144 0.78900003 4287525991
-0.12248287 0.10595144 0.78900003 4287392109
-0.12098001 0.10595144 0.78900003 4287262846
-0.11978001 0.10622001 0.79100001 4287525264
-0.11857239 0.10648858 0.79300004 4287788908
-0.11676668 0.10622001 0.79100001 4285293128
-0.11526 0.10622001 0.79100001 4282800963
-0.11375334 0.10622001 0.79100001 4282929215
-0.11224668 0.10622001 0.79100001 4282994500
-0.11074001 0.10622001 0.79100001 4282338889
-0.10923334 0.10622001 0.79100001 4281617723
-0.10772667 0.10622001 0.79100001 4281749037
-0.10622001 0.10622001 0.79100001 4281879093
-0.1049781 0.10648858 0.79300004 4282138940
-0.10346763 0.10648858 0.79300004 4282337591
-0.10195715 0.10648858 0.79300004 4282795825
-0.10044667 0.10648858 0.79300004 4283190065
-0.09918572 0.10675715 0.79500002 4283256370
-0.097671434 0.10675715 0.79500002 4283322658
-0.096157148 0.10675715 0.79500002 4283257618
-0.094404764 0.10648858 0.79300004 4283191580
-0.093128577 0.10675715 0.79500002 4283585574
-0.091614291 0.10675715 0.79500002 4283979564
-0.090326674 0.10702572 0.79700005 4284373811
-0.088808574 0.10702572 0.79700005 4284769594
-0.087400004 0.10716001 0.79800004 4285035073
-0.085880004 0.10716001 0.79800004 4285228361
-0.084360003 0.10716001 0.79800004 4285031250
-0.082736194 0.10702572 0.79700005 4284769362
-0.081218101 0.10702572 0.79700005 4285098065
-0.079800002 0.10716001 0.79800004 4285357104
-0.078181908 0.10702572 0.79700005 4284501007
-0.076760001 0.10716001 0.79800004 4283582731
-0.075240009 0.10716001 0.79800004 4282985992
-0.073720008 0.10716001 0.79800004 4282329616
-0.072200008 0.10716001 0.79800004 4282197784
-0.14184001 0.1073181 0.78800005 4288050484
-0.14051715 0.10745429 0.78900003 4287584522
-0.13936667 0.10772667 0.79100001 4287189027
-0.13786002 0.10772667 0.79100001 4286991932
-0.13635334 0.10772667 0.79100001 4286796852
-0.13484667 0.10772667 0.79100001 4286793516
-0.13300286 0.10745429 0.78900003 4286862910
-0.13150001 0.10745429 0.78900003 4286864208
-0.12999715 0.10745429 0.78900003 4286930773
-0.12833144 0.1073181 0.78800005 4286865753
-0.12683049 0.1073181 0.78800005 4286799698
-0.12532954 0.1073181 0.78800005 4286931531
-0.12382858 0.1073181 0.78800005 4287127122
-0.12232763 0.1073181 0.78800005 4287192409
-0.12098001 0.10745429 0.78900003 4287192176
-0.11947715 0.10745429 0.78900003 4287459718
-0.11827334 0.10772667 0.79100001 4287724910
-0.11676668 0.10772667 0.79100001 4285950293
-0.11526 0.10772667 0.79100001 4284177217
-0.11375334 0.10772667 0.79100001 4283321901
-0.11224668 0.10772667 0.79100001 4282469172
-0.11074001 0.10772667 0.79100001 4282140474
-0.10923334 0.10772667 0.79100001 4281879582
-0.10772667 0.10772667 0.79100001 4281878785
-0.10622001 0.10772667 0.79100001 4281879326
-0.10471334 0.10772667 0.79100001 4282074170
-0.10372858 0.10827143 0.79500002 4282271030
-0.10221429 0.10827143 0.79500002 4282533681
-0.10070001 0.10827143 0.79500002 4282796591
-0.09918572 0.10827143 0.79500002 4282993964
-0.097671434 0.10827143 0.79500002 4283191332
-0.096157148 0.10827143 0.79500002 4283060251
-0.094642863 0.10827143 0.79500002 4282929192
-0.093128577 0.10827143 0.79500002 4283717940
-0.091844767 0.10854381 0.79700005 4284570700
-0.090326674 0.10854381 0.79700005 4284703844
-0.088808574 0.10854381 0.79700005 4284839771
-0.087400004 0.10868001 0.79800004 4285363282
-0.085880004 0.10868001 0.79800004 4285817684
-0.084360003 0.10868001 0.79800004 4285096790
-0.082840003 0.10868001 0.79800004 4284377691
-0.081218101 0.10854381 0.79700005 4284706143
-0.079700008 0.10854381 0.79700005 4285035314
-0.078181908 0.10854381 0.79700005 4284374789
-0.076760001 0.10868001 0.79800004 4283783171
-0.075240009 0.10868001 0.79800004 4283054337
-0.073720008 0.10868001 0.79800004 4282395146
-0.072200008 0.10868001 0.79800004 4282132499
-0.070680007 0.10868001 0.79800004 4281935633
-0.069073334 0.10854381 0.79700005 4281737999
-0.14184001 0.10881905 0.78800005 4286534719
-0.14087334 0.10923334 0.79100001 4286196008
-0.13936667 0.10923334 0.79100001 4285871156
-0.13751143 0.10895715 0.78900003 4285803072
-0.13600858 0.10895715 0.78900003 4285739840
-0.13450572 0.10895715 0.78900003 4285996096
-0.13300286 0.10895715 0.78900003 4286263882
-0.13150001 0.10895715 0.78900003 4286332245
-0.12983239 0.10881905 0.78800005 4286403155
-0.12833144 0.10881905 0.78800005 4286010193
-0.12683049 0.10881905 0.78800005 4285618258
-0.12532954 0.10881905 0.78800005 4286206803
-0.12382858 0.10881905 0.78800005 4286732117
-0.12232763 0.10881905 0.78800005 4286927448
-0.12082668 0.10881905 0.78800005 4287128176
-0.11947715 0.10895715 0.78900003 4287396744
-0.1179743 0.10895715 0.78900003 4287658343
-0.11647144 0.10895715 0.78900003 4286605893
-0.11496858 0.10895715 0.78900003 4285552182
-0.11375334 0.10923334 0.79100001 4283711784
-0.11224668 0.10923334 0.79100001 4281876518
-0.11074001 0.10923334 0.79100001 4282005028
